ncols         339
nrows         32
xllcorner     535597.5
yllcorner     7447257.5
cellsize      5
NODATA_value  -9999
421.1985 423.3088 423.672 423.7869 423.5555 422.4893 425.51 426.5673 426.4452 424.4228 425.5179 425.0247 424.0924 421.6548 421.3246 422.2231 422.3817 422.772 423.0089 423.7418 424.2506 424.627 425.0675 426.0119 426.922 428.4207 429.7351 430.347 430.5628 431.5108 432.1344 432.4843 432.1281 432.2303 432.6042 432.6769 432.82 432.459 433.199 432.2079 431.3815 429.4142 429.22 431.893 431.855 431.8224 432.0071 431.6461 431.868 431.1693 430.5389 430.5323 428.8147 428.6752 429.296 428.6058 427.9815 427.4127 426.9449 426.49 425.9378 425.736 424.7557 423.7352 423.0775 421.9544 421.032 420.427 419.005 419.1325 418.82 419.7284 420.5885 421.6429 423.0573 424.9267 425.9492 426.6277 427.482 428.388 429.6548 430.167 429.3961 430.4506 431.1237 431.2387 431.6544 433.3898 433.8485 433.9023 433.8205 433.787 433.6989 432.1369 431.114 429.7215 428.433 425.271 419.294 417.0911 414.6509 410.819 408.283 406.179 404.2341 400.759 396.5793 392.0608 390.2774 388.8001 387.3603 386.7599 386.2844 385.8952 385.9208 385.7946 385.4825 385.6977 385.8762 385.9795 385.9997 386.4149 386.5298 386.4777 386.7029 386.7398 386.8461 387.1782 387.5555 387.3934 387.4435 387.5637 387.9215 388.1988 388.2331 388.9061 389.2647 389.5341 390.3632 391.7071 394.0426 395.358 396.9243 398.464 400.075 402.191 404.342 406.977 409.166 411.9465 414.7021 417.8215 421.512 424.6655 427.865 430.27 433.599 435.865 439.039 442.169 444.81 446.896 448.812 450.3046 450.9366 452.0776 453.4654 453.5254 455.5788 457.3721 458.6988 458.525 459.2124 458.9376 458.6255 459.1298 459.506 460.4379 461.5657 462.0022 462.5811 463.348 463.776 464.1664 465.1669 466.0955 466.8809 467.8153 468.0718 468.6167 468.8105 469.1435 469.904 470.7731 471.6679 472.5679 473.562 474.5048 475.2188 475.0626 475.5799 476.3609 476.7639 477.5621 478.9001 479.3872 479.4865 479.7868 479.992 480.0568 479.9369 480.2022 480.8796 481.5428 481.9773 481.9837 483.1294 483.8492 484.8658 485.5775 485.714 487.3247 488.6548 489.3546 490.519 491.2471 492.1321 493.3263 494.5961 494.7559 495.1833 495.1863 494.8999 495.3379 495.6003 495.8878 495.8309 495.5635 495.6441 496.279 496.9623 496.4865 495.8961 496.0762 496.0865 496.1517 496.4546 496.5399 496.1069 495.955 496.4779 496.8267 497.1866 497.5121 496.8063 495.8969 495.1701 495.2876 495.0661 495.6069 496.7485 497.7001 497.1739 496.5204 496.753 496.1625 494.8482 494.7529 494.5117 494.0495 493.542 492.6599 492.0313 490.9503 489.711 489.1102 488.9645 488.7695 489.0221 488.9104 488.1269 487.3199 486.7339 484.9045 483.156 481.9747 481.1563 480.2766 478.3114 475.8291 473.4678 471.5504 470.2165 469.5252 469.513 470.1662 470.7097 470.7524 471.553 472.8792 474.6278 476.0861 478.2446 480.3203 481.5775 482.9355 484.0989 485.4069 486.5729 487.5209 487.6265 488.2352 489.035 488.9133 488.388 487.8372 487.0559 486.224 484.916 484.1939 482.7401 482.5216 482.6852 482.5033 482.2157 481.7067 481.2236 480.3664 479.5674 479.2682 479.2261 478.8988 478.5168 478.3411 478.636 478.9643 478.3315 478.1428 479.2433
417.7561 418.8379 422.2632 422.8784 421.1619 423.3846 422.2219 423.3438 425.5691 425.561 424.9172 423.678 422.5967 421.1684 420.6308 421.2986 422.0938 422.5529 423.0446 423.2175 424.2249 424.8018 425.1195 425.5144 426.9467 428.7401 429.9065 430.0249 430.5977 431.2661 431.9004 432.1646 432.6692 433.1992 433.2884 433.8955 432.5977 432.0102 433.0249 432.1811 431.0616 430.4097 430.3818 431.1165 430.875 430.945 431.2361 430.8848 430.5978 430.2095 429.8854 429.3981 429.324 429.0029 428.339 427.303 426.533 426.0903 425.5518 424.644 424.503 424.0267 423.4075 422.555 421.488 419.873 418.8307 417.8653 417.531 417.371 416.8218 417.483 419.408 420.413 422.3474 424.1164 425.031 425.7687 426.6273 427.7121 428.4668 429.414 430.5857 431.3795 431.461 432.242 432.6683 432.7646 433.1136 433.0242 432.3131 432.208 431.6027 430.576 429.6973 428.626 427.331 421.8033 418.7243 416.8512 413.343 410.752 408.1033 405.5462 402.8695 400.0081 396.0462 392.8129 390.4089 388.6624 387.09 386.4557 385.929 385.3956 385.1963 385.3886 385.5645 385.5663 385.7068 385.8345 385.8874 386.1449 386.3286 386.3596 385.9655 386.4509 386.9478 386.9848 386.8563 387.4012 387.5275 387.6237 387.6133 387.7379 387.9745 388.6244 389.2076 389.4938 390.0135 392.3571 393.7645 395.5244 396.7639 398.1923 399.9251 402.0595 404.196 406.7032 409.532 411.747 414.5105 417.8625 420.8833 424.126 427.3413 430.0785 434.134 436.4802 439.257 441.785 444.481 445.9355 448.182 449.8094 451.1195 452.1695 453.6709 454.5078 455.7838 457.0156 458.7001 459.4284 459.5967 459.6681 459.1051 459.7747 460.447 460.8578 461.8277 462.6531 463.4941 464.4125 465.0646 465.4335 466.0191 466.6057 467.2861 468.3764 469.1396 469.6119 470.0649 470.5075 470.8567 471.767 472.4718 473.5747 475.0055 476.0349 476.308 476.3209 476.7557 477.4227 477.922 478.3545 479.1795 479.705 479.9497 480.5028 481.1274 480.8732 480.9776 481.4379 481.9325 482.4559 483.3128 484.0382 484.4985 485.4313 486.5832 487.748 487.8306 488.732 490.3576 490.9329 491.9301 492.7728 493.2073 494.5862 495.3584 496.1359 496.4035 496.867 496.8251 496.5514 496.6542 496.8359 497.1488 497.4044 497.8308 498.3994 498.3243 498.7237 498.3862 498.1312 497.1792 497.0532 497.7265 497.5293 497.511 497.4798 497.5819 498.3906 498.5292 499.0397 499.1421 498.299 497.4219 496.7939 496.8309 498.2284 499.8332 500.8293 500.4274 499.3539 498.5844 497.9288 497.4694 497.1293 497.1488 496.3747 495.9273 494.9639 493.7302 492.8778 491.623 490.7926 490.7328 490.4211 490.2267 490.2446 489.512 488.7312 488.2578 487.4835 485.8688 484.4059 482.39 480.5891 479.2662 476.9335 474.4202 472.7303 471.3246 470.5594 470.5248 470.6169 470.7968 471.4451 472.8684 474.0428 476.4242 478.1447 479.5167 481.4594 482.7566 484.164 485.1476 486.3692 487.5769 488.896 489.2066 489.3391 489.9742 489.7611 488.9633 487.9598 487.3536 486.8192 485.9745 485.1869 484.2507 483.6018 484.282 484.312 484.0568 483.1079 481.8368 481.4821 480.5131 479.981 480.0054 479.3206 478.7314 478.9724 479.0288 478.7004 478.6723 478.383 479.1584
417.3119 419.1931 419.9913 421.521 421.9776 422.4005 422.6028 424.2669 424.6775 424.7104 423.873 422.6495 421.3673 420.2315 420.5963 420.9002 421.5884 422.3843 422.7698 423.1065 423.8712 425.0877 425.3552 425.7924 426.9932 428.7474 429.7527 429.8931 430.434 431.1559 431.8395 432.4642 433.0708 433.5144 433.668 434.1973 432.2882 432.8716 432.7086 431.707 430.6125 429.816 429.5026 429.4143 429.51 429.687 429.9547 429.5223 429.1174 428.673 428.4335 428.2393 427.8536 427.119 426.854 426.0364 424.904 424.2332 423.8033 423.0203 422.4918 421.9165 421.3213 420.2975 419.3115 417.8073 416.3827 415.2894 414.8117 414.7545 414.4885 415.006 416.9086 419.238 421.0018 422.553 423.455 424.1417 424.7815 426.5333 427.8529 428.584 429.882 430.776 431.131 431.0765 431.4028 431.54 431.801 431.7374 431.417 431.0118 430.421 429.7489 429.0824 427.699 425.6151 421.8906 418.7243 415.7473 413.0175 410.755 408.247 404.943 402.2735 399.4734 397.0897 393.6116 390.4165 388.1807 386.9376 386.4388 386.1902 385.4451 384.9547 384.8385 385.5391 385.5646 385.1928 386.0611 385.3356 385.593 385.9582 386.0689 385.9141 386.2001 387.0114 386.7912 386.8347 387.1497 387.2704 387.2852 387.667 387.729 387.5691 388.3743 389.3404 389.694 390.1325 392.171 393.666 394.717 396.327 398.276 399.8295 401.92 404.2154 407.204 409.376 412.072 414.4706 417.643 421.0015 424.432 427.0085 429.774 434.329 436.5873 438.876 441.1008 443.457 445.618 447.7625 449.35 451.0347 452.2907 453.595 454.2517 455.7167 457.1863 458.2831 459.5101 459.4612 459.961 460.806 460.8921 461.2991 461.5884 462.2657 463.1111 464.1072 465.4554 466.8069 466.9234 467.1658 467.6871 467.9953 468.9305 469.6803 470.3142 470.6359 471.461 471.9862 472.4936 473.5305 474.5504 476.002 477.1839 477.7313 477.6377 477.7523 478.2821 478.584 479.2582 479.8142 480.3207 480.7331 481.1736 481.492 482.0209 482.1348 482.8071 483.3507 483.5076 484.3613 485.4554 486.3637 487.4276 488.1483 488.9783 489.7075 490.3769 491.7024 491.9829 492.748 493.472 494.2956 495.2566 496.0956 496.7082 497.5797 497.6516 497.8877 497.759 497.1204 497.63 498.175 499.0679 499.8721 500.3141 500.2766 500.2613 499.9224 499.7199 499.0745 498.3113 498.7592 498.7026 497.974 498.7354 499.3817 499.7798 499.9805 500.2606 500.8817 500.6267 499.7141 499.6676 499.9509 500.7227 501.6952 501.7737 501.6616 501.4112 500.5502 499.8914 499.8201 499.6696 499.2906 498.6649 497.9062 497.4313 495.9931 494.6676 493.9759 493.4797 492.5458 491.8876 491.6667 491.478 491.1291 490.2582 489.5823 489.2943 488.0218 485.9483 484.1146 482.1274 479.6381 477.7145 475.8328 473.981 472.8894 472.0883 471.5594 471.5934 472.0603 472.519 474.3725 476.1021 477.5511 479.7638 481.1865 482.6808 483.8928 484.9933 485.8869 487.7489 488.714 489.7306 490.7198 490.8615 490.7791 490.2242 489.9685 488.7822 487.4344 487.2195 486.8473 486.2248 485.8665 485.7456 485.4967 485.2241 484.9275 484.1577 482.7606 482.1601 481.6182 480.653 480.4237 480.3026 479.9082 479.6809 479.5406 478.9197 478.6491 478.5438 478.6287
413.4309 417.3983 418.8553 419.591 420.7088 420.931 421.1016 422.4129 423.25 422.8785 422.2749 421.086 419.2731 419.693 420.0558 420.1916 420.603 421.4435 421.9386 422.4922 423.6767 424.7406 425.33 425.6872 426.8794 428.5493 429.7098 430.1666 430.3883 431.0685 431.8291 433.6964 434.6073 434.9278 435.1905 434.0891 433.3519 432.7176 432.2432 431.364 429.761 428.4997 428.363 427.9741 427.857 428.155 428.07 428.4925 428.001 427.396 426.708 426.367 425.7793 425.3967 424.764 424.0643 423.339 422.041 421.725 421.416 420.576 419.323 418.348 416.907 415.6052 414.584 413.3546 412.4664 411.8419 411.8467 412.053 412.7847 413.8082 416.6505 418.6573 420.259 421.4405 421.9478 422.9835 423.7643 426.1684 427.4275 428.627 429.3392 429.878 429.8044 429.8185 430.0131 430.2915 430.3926 430.3295 429.821 429.444 428.6114 428.0342 427.0459 425.6424 422.4742 418.6757 414.8615 412.8027 410.1429 408.006 404.8272 401.4086 399.5933 396.1204 393.324 390.3369 388.0897 386.7845 386.1003 385.8179 385.5097 384.8588 384.7184 386.1829 386.5204 386.4266 386.3773 385.1144 385.1807 385.6724 385.6545 385.8036 386.2176 386.7877 386.9292 386.9251 386.8282 386.9787 387.0395 387.244 387.496 387.5502 387.8955 389.0094 389.7616 390.1634 390.9952 393.604 395.09 396.149 398.528 400.2115 402.273 404.89 407.2393 409.6715 412.401 415.153 417.935 420.261 423.8645 426.8587 430.005 432.9435 435.989 438.529 440.8946 443.3465 445.821 447.3705 449.196 450.9798 452.4411 453.766 454.6932 455.8362 456.9272 458.3362 459.4205 460.417 460.0041 461.074 461.9973 462.0654 462.8927 463.4355 463.9583 464.8027 465.8086 467.0302 467.3586 467.5449 468.612 469.0132 469.7 470.487 470.9573 471.1355 471.5849 473.1715 473.6914 474.5471 475.624 476.7368 478.0999 479.0997 479.2756 479.243 479.5549 479.8872 479.9488 480.3648 480.6678 481.375 481.7721 482.14 482.3995 483.501 484.4779 485.0687 485.6178 486.0298 486.8221 487.5826 488.7327 489.9394 490.2764 491.1479 491.8573 492.6253 493.3432 493.4941 494.2665 494.9524 495.6187 496.4742 497.1876 497.7042 498.0211 498.1447 498.0674 497.924 498.1547 498.8279 500.0669 500.7781 500.9353 501.0488 500.9245 501.0214 500.5177 500.338 499.9394 499.6237 499.537 499.2621 499.1895 500.1302 500.9338 501.0326 501.3914 502.3831 502.8331 502.7481 503.1614 503.7731 503.7525 503.6702 503.4624 502.9296 502.4559 501.9799 501.6226 501.8785 501.9315 501.4894 501.0211 499.952 498.8425 497.6148 496.2905 495.9561 496.1026 495.8724 494.2799 493.3273 492.912 492.4832 491.9054 490.8798 490.3655 490.1329 488.5719 485.9836 484.0475 481.4197 478.8662 477.1942 475.4501 474.1478 473.686 473.2686 473.0393 473.6185 474.3473 475.6896 478.1844 479.337 480.6424 482.754 483.7852 484.8476 486.0157 487.2991 488.6728 490.0851 490.5265 491.3059 491.6022 491.306 490.7939 490.5952 490.2059 488.7205 487.9763 487.5842 487.0604 486.9581 486.812 486.3046 486.1686 486.0549 485.388 484.1788 483.1201 482.3994 481.4816 480.8725 480.7821 481.0114 480.7371 479.3827 478.9388 478.4194 477.8759 477.7321
412.2901 415.7271 417.1083 417.99 418.6013 419.7087 419.9721 419.8043 420.061 420.5062 420.2976 419.977 419.9104 418.3239 419.1411 419.1347 419.3911 420.4479 421.4074 421.7962 422.8367 424.1994 424.458 424.927 425.9803 427.5485 430.5651 430.8857 432.0546 432.2726 432.9476 433.113 433.416 433.475 433.5173 433.26 432.462 431.7179 431.418 430.4974 428.5104 427.341 426.716 426.414 426.3912 426.24 426.532 426.5023 426.106 425.6733 425.092 424.7006 424.296 423.6164 423.1897 422.5943 421.378 420.06 419.0883 418.8746 418.2263 416.5528 414.5773 413.8317 412.2783 411.5897 410.3697 409.3168 408.7152 408.884 409.7236 410.3358 411.1872 414.1685 415.7367 415.8637 416.9337 419.3406 420.159 421.7318 423.612 425.5644 426.9177 428.0237 428.56 428.2725 428.3752 428.333 428.353 429.0048 429.509 428.409 427.5 427.209 426.6043 425.7018 425.1576 420.7135 416.962 413.998 411.9498 409.9766 406.9961 404.4911 401.643 399.2657 394.9601 392.4797 390.4765 388.1486 387.0446 385.7785 385.0352 385.0037 384.8933 384.6066 386.1694 384.8834 386.1558 386.3345 386.0453 385.2802 385.6107 385.7852 385.8073 385.8621 386.1308 386.4057 386.5378 386.5617 386.4329 386.8171 387.0646 387.2604 387.236 387.549 388.4787 389.64 390.2377 390.8298 393.525 395.018 396.529 398.544 400.528 402.654 405.195 407.1588 410.023 412.146 414.908 417.699 420.76 424.387 427.294 430.203 433.46 436.716 439.0201 441.276 443.5751 445.8143 447.4095 449.145 450.7315 452.342 453.6575 454.8049 455.8612 456.9088 458.2041 459.5565 460.4773 460.3852 461.0992 462.0018 462.8386 463.4521 464.509 465.084 465.7738 466.3997 467.3587 467.8743 468.0525 468.9297 469.7024 470.3387 470.9291 471.4357 471.9861 472.6248 473.7248 475.0668 475.9739 477.3044 478.6525 478.8864 480.267 481.5348 481.5612 481.3069 481.514 481.1188 481.1195 481.4061 481.8327 482.674 483.2976 483.7478 484.6051 485.8523 486.6198 487.1691 487.8315 488.4865 488.7731 489.887 490.6764 491.0138 492.2488 493.4991 493.9648 494.3921 494.3838 494.9774 495.5823 496.3238 496.3794 497.3249 498.1258 498.1586 498.4542 498.7783 498.6898 499.1435 499.8488 500.592 501.629 501.4992 501.5124 501.4909 501.6345 502.0541 501.4476 500.9465 500.5074 500.4573 500.7252 501.0093 501.3364 501.8295 502.3487 502.6097 503.4537 504.3133 504.9067 505.2068 505.2949 505.2209 505.1459 504.5942 504.443 503.6733 503.8266 503.8436 504.295 503.9171 503.3176 502.5582 501.0375 499.4651 498.5605 497.7237 497.031 497.3515 497.5761 496.6213 495.5014 494.406 493.7789 492.9015 492.1872 491.8784 491.7598 491.1441 489.3322 485.6781 482.7355 480.4859 478.7859 477.1435 475.9006 475.4897 475.457 475.1497 475.3685 476.2823 477.667 479.4249 480.7356 481.4151 483.2029 485.1125 485.8162 486.8629 487.8719 489.4558 490.6127 491.6308 492.1388 491.8752 491.3836 490.6404 490.1905 489.6008 489.4686 488.6077 488.1789 487.9644 488.0437 487.9823 487.3607 487.093 487.1744 486.431 485.3548 484.4782 483.3775 482.4944 481.8207 481.6358 481.7283 481.3671 479.8812 478.8134 478.4901 477.0844 476.6418
410.9371 411.5481 414.8327 416.6525 416.9305 416.972 418.1392 418.813 418.7285 418.7688 418.237 418.5933 419.0684 417.3064 417.9284 418.4286 418.6871 419.9742 421.0163 421.8821 422.3361 422.9152 423.6934 424.2149 425.2653 426.9841 427.9977 428.5379 430.8287 430.7807 431.1406 430.2033 432.774 432.0495 431.8505 431.2297 431.137 430.393 430.047 428.667 427.5738 426.021 425.365 425.0225 424.5237 424.6133 424.1995 424.53 423.921 423.35 422.6447 422.4262 422.326 421.535 420.9063 419.917 419.2127 418.1713 416.7597 415.8518 414.8517 412.8107 411.3832 410.3077 408.4872 407.7863 406.9209 406.1927 405.6363 405.9953 407.2119 408.168 408.1247 408.388 410.825 412.614 413.5218 415.778 417.578 419.1302 420.0907 422.5388 423.8109 425.2942 426.4783 427.104 426.931 426.7382 426.654 427.1183 427.5723 426.7263 425.6302 425.522 424.732 423.945 421.5895 418.459 415.5979 413.912 411.428 408.147 405.682 403.7371 400.809 398.3445 394.7136 392.0108 390.3893 388.4625 386.4775 385.5913 384.8948 384.4431 384.2267 385.4771 385.6917 385.4538 385.3781 385.9824 386.1494 385.5341 385.5969 385.6573 385.839 385.9317 386.0062 386.3387 386.0301 386.0898 386.477 386.5074 386.9387 387.4337 387.4713 387.578 388.4163 389.6529 390.2746 390.8747 393.6265 395.3533 396.89 398.89 400.949 402.958 405.0505 407.159 409.8175 412.252 415.2 417.923 420.929 423.867 427.3257 430.992 434.445 436.7515 438.9065 441.577 443.9387 445.8693 447.4947 449.277 450.924 452.3446 453.5255 454.724 456.313 457.1255 457.0734 459.7545 461.0558 460.785 462.1858 463.0191 463.7244 464.2215 465.2784 466.0235 466.4542 466.9529 467.6794 468.3892 468.789 469.3289 469.8243 470.5313 471.5092 471.9098 472.5496 473.7084 474.856 475.9493 477.3802 478.6899 480.0061 480.7039 480.9975 482.7112 483.3304 482.7663 482.41 482.5251 482.8296 483.3582 483.7926 484.2299 484.6995 485.0448 485.7567 486.9776 487.7779 488.468 488.955 489.5764 490.0643 490.927 492.0803 492.5721 493.3743 494.7626 495.214 495.5475 495.6313 495.8414 496.479 496.7313 497.2643 497.3535 498.3868 498.806 499.0591 499.8004 500.0623 499.9926 500.8372 501.5449 501.8011 502.1741 502.657 502.4702 502.3672 502.6567 502.81 501.9061 502.0191 502.0782 502.4273 502.635 502.853 503.2777 504.1297 504.3409 504.8229 505.5877 505.9621 506.2788 506.2009 506.1774 505.7225 505.4632 505.9078 505.683 505.2151 505.4904 505.5087 505.4078 504.5283 503.6322 501.9467 500.7603 499.8309 498.9541 498.2129 497.9371 498.098 497.2466 496.5369 496.1013 495.3685 494.589 493.6705 493.2447 492.9613 492.2743 491.2346 488.5416 484.5604 482.0757 480.6087 479.3795 478.0143 477.6542 477.2237 476.6429 476.9138 477.7148 479.1807 480.307 481.1587 482.265 483.8542 485.6787 487.0651 487.8431 488.4178 489.6236 491.0657 491.9921 492.2878 492.3438 491.3972 490.4411 489.8703 489.5582 489.967 490.1515 489.7641 489.9659 488.9049 488.8713 488.7617 488.3741 487.868 487.0529 486.1117 485.2117 484.4507 483.957 483.2421 482.9435 482.7185 481.6877 480.1231 478.693 478.3528 477.4063 476.7337
409.0313 410.2926 411.7302 414.9681 415.8074 415.896 415.828 415.852 416.4054 416.9473 417.1651 417.323 415.8701 416.1181 416.9524 417.8047 418.4945 419.1435 420.5244 421.204 422.2205 422.3136 423.2571 424.0141 424.6275 426.3547 427.591 427.872 428.3106 428.7366 428.9486 431.465 431.218 430.822 430.0745 429.9989 429.7867 429.6185 428.789 426.9 425.7967 424.7583 424.1625 423.7845 423.0188 422.6185 421.6235 420.7923 420.813 420.9015 420.001 419.489 419.352 419.6876 418.8558 418.059 417.3937 415.6896 413.692 413.2794 411.8462 409.372 408.1897 407.1432 404.7836 404.2767 404.087 402.6795 402.6906 403.459 404.0805 406.4773 405.341 405.7374 408.059 410.047 411.2553 412.8366 414.6628 415.2877 416.2845 417.7948 419.4282 421.5411 423.2101 423.621 424.8096 424.5622 424.3895 425.053 425.3782 425.05 424.341 423.8525 423.013 421.9315 420.514 417.1964 415.2732 412.7575 409.791 407.3937 405.0364 402.7654 400.885 398.3843 395.6518 392.0358 390.2515 388.5135 386.5372 384.9448 384.4193 384.0088 383.7355 384.0147 385.3047 385.3398 385.3022 385.3555 385.8563 385.3242 385.9646 385.3959 385.7986 386.4015 386.4019 386.5087 386.2882 386.0672 386.3364 386.4338 386.6364 387.4057 387.5659 387.7479 388.1913 389.1443 389.9435 390.8763 393.6746 395.5708 397.0117 399.093 400.781 402.828 404.903 407.022 408.672 411.316 414.0145 417.5712 421.0175 425.0492 427.9833 431.18 434.235 437.141 439.657 441.676 443.9723 446.0757 448.1013 449.563 451.0841 452.543 453.736 455.0405 456.1606 457.4417 458.7225 460.1894 461.5547 461.1837 462.7358 463.961 464.5185 465.1981 465.8314 466.4716 466.8741 467.5705 468.1187 468.6107 469.0795 469.8301 470.2161 470.6708 471.621 472.4018 472.8605 474.322 475.4242 476.5407 477.7924 478.9343 479.7864 480.7949 481.7747 482.6241 483.9456 483.8109 483.1357 483.3391 483.811 484.3862 485.1382 485.5657 486.0967 486.5182 487.1796 488.1959 489.0233 489.6923 490.1398 490.5518 491.2267 491.7883 492.8601 494.114 495.0312 495.4888 496.1367 496.3373 496.619 496.9206 497.4728 497.8723 497.9062 498.3496 499.0129 499.2351 500.0563 500.6367 500.9985 500.8568 501.1501 501.947 502.9591 502.8077 503.1877 503.5818 503.0028 502.9089 502.9137 502.6389 502.7016 503.4216 503.4266 503.7795 504.2873 504.9748 505.8405 506.2013 506.3464 506.9224 507.1398 507.0647 507.2153 507.1566 507.0345 506.9333 507.7491 507.8966 507.06 506.7079 506.6411 506.4064 505.7587 504.8895 503.2166 501.7243 501.0074 499.8624 498.8969 498.4202 498.0792 497.7086 497.0996 497.1104 496.9209 496.1335 494.8716 494.2903 493.5215 492.8571 492.0546 490.6756 487.1124 484.1057 482.4133 481.8085 480.5488 479.1943 478.912 478.007 478.1093 479.2407 479.8228 480.9932 481.9618 482.8224 484.1655 486.024 487.3416 488.2638 489.2477 490.0141 490.6863 491.2717 491.4792 491.3011 490.8897 490.1356 490.168 490.2338 490.985 491.698 491.5959 491.4787 490.8508 489.6044 489.6705 489.4246 488.8047 488.0219 487.0686 486.3627 485.6431 484.962 484.8045 484.0178 483.493 481.5993 479.8304 478.3409 477.6254 477.1692 476.8367
407.0689 408.8303 410.4569 414.1823 415.1554 415.0033 414.6419 414.5358 414.8989 415.1774 413.8712 416.4463 415.2014 415.1593 415.9062 416.67 417.9761 419.015 420.0444 421.0916 421.4252 422.0163 422.8049 424.4859 425.1774 425.8217 428.4515 429.1943 429.2314 429.9194 428.6793 429.847 429.891 429.566 429.0941 428.67 429.017 428.164 427.122 425.641 424.2107 423.16 422.6087 422.345 421.6695 421.0667 420.039 419.3524 419.0211 418.7177 418.3065 417.8965 416.806 416.06 415.8295 414.7039 413.5773 413.0868 412.0025 410.5625 408.7243 405.3227 404.8458 402.6798 400.737 401.6977 402.074 400.3373 400.29 400.7178 400.8618 402.1192 402.8082 404.3968 406.0981 407.5067 408.3893 410.1982 411.2825 412.2353 412.8972 412.9843 414.2859 415.404 415.7737 418.2102 420.6772 421.983 422.315 422.922 423.7804 423.1957 422.985 422.3014 421.6373 421.0411 419.3245 417.0645 414.639 412.1185 408.929 406.2518 404.087 402.2799 400.4896 398.464 396.04 392.9704 389.7297 387.7831 386.0443 384.559 383.9595 383.5728 383.3776 383.9229 384.1647 385.1587 385.2277 385.3716 385.8623 384.9785 385.6481 385.7131 385.7372 386.3334 386.3603 386.2789 386.2242 386.1232 386.0452 386.5383 386.4715 386.847 387.0415 387.4528 388.1237 388.7545 389.9604 390.9334 393.77 395.8915 397.169 398.689 401.002 403.174 404.787 407.318 409.2105 411.6405 414.6263 417.027 421.532 425.61 428.491 432.368 434.817 437.1642 439.295 441.842 443.9245 446.285 448.4685 449.8936 451.26 452.8816 452.3541 453.947 456.4255 456.7232 459.1898 460.4575 461.4752 461.4948 462.4638 463.7813 464.571 465.5387 466.1957 466.6614 467.1659 467.8248 468.7894 469.446 469.9568 470.4597 470.7215 471.2498 472.0486 472.9056 473.5282 474.412 475.899 476.6883 477.3957 478.3267 479.561 480.503 481.4407 482.3825 483.1813 483.5554 483.6468 484.3762 485.0455 485.4348 485.9857 486.7373 487.4159 488.0685 488.6708 489.1709 489.6796 490.1946 490.7929 491.3913 492.4147 493.4174 493.8123 494.7918 495.8951 496.4737 497.1389 497.3712 497.4248 497.8406 498.119 498.4885 498.6856 499.1661 499.8389 500.2038 500.7035 501.4673 501.5937 502.108 502.3405 502.6004 503.4447 504.2209 503.6814 504.2791 504.0663 503.7003 503.5947 503.4625 503.459 504.0092 504.59 504.9268 505.647 506.6072 507.3337 507.677 507.551 507.8969 508.2121 508.2865 508.33 508.2132 508.4063 508.3659 509.0819 509.5052 508.7556 508.2516 507.9066 507.6962 506.9812 506.0443 504.5241 502.5173 501.2742 500.3813 499.4683 498.7787 498.4637 497.9193 497.9629 497.8927 497.8177 497.0297 495.7975 494.7059 494.2432 493.3335 492.2506 490.4701 487.8127 485.3759 484.3971 483.6489 482.3928 480.6145 479.9517 480.0007 480.3427 480.6822 481.2853 481.7251 482.7741 483.7764 484.5168 485.8629 487.1039 487.9637 488.9594 489.8758 490.3446 490.3782 490.8094 490.5277 489.712 489.4551 489.7597 490.5413 491.2126 491.5902 491.7726 491.9747 491.7002 491.295 490.3579 489.7975 489.5714 488.9338 487.2 487.2507 486.768 485.9329 485.6906 484.8477 483.371 481.7527 479.9562 478.7878 477.5818 477.3451 477.0676
405.8502 407.5198 408.9545 409.7785 414.2755 413.9257 413.826 413.643 413.5531 412.6707 414.3885 415.6665 416.3892 416.7016 415.2883 416.4369 417.4017 418.8227 419.8781 420.2528 421.1882 421.7469 422.1866 423.8669 426.5316 427.202 426.57 428.5818 428.5483 428.9065 429.2023 428.97 428.6825 428.3125 428.1377 427.644 427.3895 426.7433 425.5868 424.009 422.8265 421.686 420.9685 420.4945 419.714 419.1087 418.167 417.5825 417.1935 416.4557 415.887 415.7565 414.8545 413.964 413.6457 412.8104 411.774 410.6348 409.7393 408.1317 405.2966 403.88 401.7032 399.8429 398.995 399.0137 398.7624 397.2155 397.6384 398.4437 398.325 398.924 400.4012 402.1167 403.514 404.4448 405.7095 406.8058 408.3612 408.8386 408.1963 408.9532 409.6488 411.3716 413.0067 414.808 417.523 420.302 421.1285 422.185 422.025 421.8065 421.1083 421.1544 421.1702 419.512 417.5935 415.7814 413.806 411.4541 408.136 405.1121 403.4314 401.8961 400.4039 398.5541 396.3812 393.1168 389.2003 387.0441 385.5848 384.1631 383.6869 383.7333 383.4785 383.3444 383.7001 383.6267 384.9669 384.8971 385.6317 384.8038 385.475 385.6474 385.7216 385.831 385.92 385.9169 386.1225 386.1355 386.2859 386.5555 386.6555 386.3684 386.676 387.1812 388.2318 388.9495 390.0532 392.8787 393.9065 395.123 396.855 398.577 400.7883 402.7955 405.552 407.622 410.226 412.846 415.55 418.6432 422.037 426.349 428.691 431.9467 435.3355 438.302 440.1352 442.3425 444.5498 446.6308 448.4214 449.8477 451.525 453.2035 454.032 454.6134 456.6457 458.2048 459.5383 460.9092 460.5617 462.5961 463.0114 464.9225 465.2652 465.6661 466.1282 467.1075 467.5814 468.1268 468.8873 469.7635 470.1819 470.5762 471.0117 471.5383 472.587 473.4115 474.3168 474.9924 476.3525 477.4979 477.5206 478.3433 479.9722 480.8004 481.7075 482.9226 483.5562 483.6586 484.1804 485.4534 486.2012 486.8366 487.6665 488.4222 489.4064 489.502 489.3404 489.8882 490.528 491.0968 491.3352 492.2008 493.5372 494.6237 495.1358 495.9281 496.8048 497.6992 498.04 498.4197 498.2285 498.952 499.5026 499.2626 499.6617 500.0165 500.477 500.8843 501.4991 502.1686 502.3855 503.0461 503.9893 504.2931 504.5863 504.6479 504.3987 504.4708 505.2019 504.4568 504.241 504.3407 505.1568 505.3969 505.7019 506.3285 506.8641 507.5665 507.8585 508.6834 509.048 508.8127 509.2832 509.579 509.4182 509.2156 509.2426 509.6664 509.7337 510.5627 510.3102 509.9239 509.3557 508.5208 507.7422 506.8282 505.6497 503.8111 502.2126 501.1576 500.1956 499.4302 499.1182 498.7352 498.7037 498.9315 498.6664 497.7375 496.5535 495.7018 494.7406 493.7267 492.4979 490.299 487.7366 485.9145 485.3768 484.5426 483.0901 481.6071 480.8993 481.2354 481.9019 482.4049 482.5102 483.2332 484.0046 484.654 485.286 486.3176 487.1062 487.8843 488.3817 489.1745 489.5809 489.5616 489.6574 489.9601 489.7469 489.2818 489.3712 490.2957 491.169 491.4186 491.3766 491.8011 492.1943 492.0475 491.4547 490.9652 490.0889 489.4868 488.5779 487.3432 487.7294 486.3532 485.7301 484.9095 483.1449 481.2287 479.8641 478.5005 477.8903 477.4933 477.4734
404.243 406.5714 407.996 408.9753 412.8363 413.5913 413.0996 412.706 412.2949 411.4279 411.961 412.9805 415.562 415.613 416.3876 415.3644 416.1561 419.3335 420.9619 421.8387 422.372 423.393 423.0303 422.7465 425.7714 426.103 426.962 427.6112 427.8138 427.4098 427.653 427.539 427.0827 427.027 427.0895 426.7969 426.004 425.3667 424.1924 422.7154 421.044 420.09 419.7359 418.9967 418.5495 417.801 416.82 416.123 415.5493 414.5445 414.049 413.5437 413.408 412.5087 412.0495 411.4118 409.8528 408.3138 406.8745 404.294 403.1576 400.8736 398.7091 395.7867 396.063 395.6079 395.2367 394.6718 395.6973 396.771 396.902 397.8882 398.4913 399.3352 400.4113 401.9793 403.1713 404.0109 405.3333 405.9922 406.207 406.9536 407.9105 409.05 410.903 412.868 416.3507 418.6615 420.2795 421.1755 421.162 420.4602 420.481 420.257 419.41 418.1677 416.1997 414.4785 412.7338 409.8725 406.9327 404.3583 403.3752 401.6964 399.8649 398.559 396.2514 392.3668 388.807 386.3091 385.0713 384.0583 383.3042 382.9438 382.9207 383.1308 384.0533 384.2785 384.283 383.6551 385.3515 385.8395 385.4749 385.713 385.6851 385.6828 386.5958 386.213 385.9807 386.3954 386.5348 386.8061 386.726 386.4951 386.9368 387.58 387.9992 388.6997 389.8827 391.49 392.6114 395.487 397.5399 399.335 401.338 403.981 406.1265 408.917 410.7715 413.5853 415.832 419.5245 423.5235 426.544 428.915 432.793 436.847 438.705 441.3167 443.2886 445.1895 446.7943 449.005 450.5511 451.8712 453.258 454.7751 455.964 457.0816 458.227 459.8512 460.1017 460.9333 462.8757 463.3734 464.4812 465.493 466.21 466.2176 466.9726 467.7659 468.5583 469.1664 469.6322 470.0507 470.6476 471.3051 472.2241 472.6244 473.9219 475.1542 475.609 476.7782 478.2438 478.2434 478.9308 480.6059 481.7222 482.4504 483.5161 483.9377 484.6961 486.4828 486.9519 487.0211 487.7682 488.5318 489.3278 490.1191 490.7767 490.2803 490.7975 491.8922 492.6683 492.9063 493.4785 494.4309 495.3743 496.3872 497.0146 497.685 498.4336 498.8922 498.9425 499.0009 499.0422 499.8367 500.377 500.4857 500.7759 501.1503 501.7068 501.9186 502.8585 503.7256 504.3215 504.8134 505.216 505.3381 505.473 504.9612 504.3451 504.8839 505.2678 504.8393 505.2535 505.9654 506.9514 507.5805 507.9268 509.023 509.39 509.718 510.0594 510.5717 509.9812 509.9759 510.1719 510.0402 509.834 509.9128 510.2671 511.0519 511.3124 511.155 510.7784 510.556 509.2484 508.1558 507.2637 506.2584 505.1311 503.4781 502.1075 501.0791 500.4921 499.9965 499.6021 499.7785 499.8208 499.4799 498.8091 497.3553 496.3004 495.2334 493.8105 492.0427 489.9738 487.5816 486.2467 485.5503 484.6413 483.6047 482.3777 481.8429 482.0913 483.0241 483.7054 484.0826 484.5625 485.0753 485.7855 486.3603 487.018 487.8269 488.311 488.77 488.5112 488.9174 488.8452 488.5885 489.1124 489.5706 489.9099 489.6376 490.1839 490.5509 491.1469 491.7925 491.7524 491.9787 491.9256 491.4689 491.2456 491.2322 489.9326 489.4478 489.004 487.8872 486.8891 485.9108 484.5022 482.9575 481.2717 479.81 478.8328 477.9433 477.8304 477.232
402.09 404.439 406.8738 408.2775 412.5032 412.9089 412.3934 411.7823 410.7946 409.7179 410.4532 411.7598 415.052 414.5035 414.961 416.0421 417.1698 418.489 418.9259 419.9146 420.277 421.7229 422.7367 423.508 424.621 425.2499 425.924 426.219 426.0274 425.863 425.622 425.7087 425.355 425.833 426.0244 425.6757 424.491 423.468 422.402 420.857 420.08 419.0691 418.293 417.677 417.0515 416.51 415.528 414.6115 413.813 412.787 412.2548 411.3243 410.5687 410.766 410.2783 409.2267 407.4147 405.3865 402.9906 401.715 400.9995 399.258 395.1425 393.6377 393.3107 392.4208 392.612 393.207 394.413 395.363 395.333 396.487 396.8133 397.6703 398.9083 400.392 401.4733 401.8613 402.753 403.644 403.8896 404.6902 405.9787 407.4587 408.9663 411.3003 414.525 417.323 418.7845 419.9527 420.235 420.239 418.9293 419.5859 417.8758 416.4167 414.8767 413.1411 410.442 408.306 405.69 404.0797 402.799 401.3242 399.7704 397.9465 395.481 392.3449 388.4761 386.0562 384.5675 383.6059 382.8899 382.4056 382.2892 383.7359 383.9379 384.1897 382.9773 384.5845 385.2945 385.9366 386.5273 385.6979 385.8504 385.7177 385.9867 386.3628 386.1771 386.7532 386.9685 386.8514 386.7505 386.6671 387.1202 387.5362 387.7687 388.0943 389.301 391.2308 392.9518 396.292 398.0527 399.927 401.659 404.146 405.691 408.7175 411.308 413.943 416.2809 419.549 423.2445 426.303 429.958 433.778 437.01 439.3004 441.402 443.3805 445.6204 447.6604 449.6138 451.2263 451.568 453.5538 454.1917 455.5427 456.5782 458.5259 460.0095 461.2118 461.8528 462.5796 463.8287 464.8383 465.3974 465.9577 466.9014 467.4438 467.9165 468.5155 469.3652 470.6461 470.9879 471.2124 472.0274 472.7961 473.5402 474.1238 475.5173 476.2574 477.0278 478.5909 479.5052 479.9495 481.2827 482.3272 483.1706 484.2805 484.7816 485.457 487.09 488.2549 488.1201 488.8675 489.8601 490.0388 490.5113 491.0391 491.4964 492.1908 493.2878 493.6598 493.9482 494.5977 495.2809 496.4541 497.4683 498.1216 498.3138 498.763 499.3703 499.6525 499.9275 499.9041 499.9436 500.1446 500.4845 500.9841 501.6239 502.3948 502.7968 503.1294 504.0917 504.946 505.4949 505.5909 505.6666 505.6307 505.4711 504.9274 505.0107 505.4509 505.501 506.1919 506.9534 507.5908 508.8403 510.0988 511.2324 512.3436 511.9109 512.0583 511.7565 511.2921 510.691 510.604 510.342 510.1787 510.7534 511.5988 511.6695 511.6437 511.3202 510.9936 510.5797 509.6176 508.2126 507.5113 506.8789 505.9313 504.9116 503.7687 502.7305 501.8529 501.1576 500.543 500.4764 500.6791 500.3657 499.7654 498.6064 496.9983 495.4634 493.6811 491.5911 489.1179 487.3383 486.3817 485.4372 484.7859 483.9724 483.1601 482.6716 483.1764 484.3566 485.3373 485.767 486.1898 486.2916 486.7514 487.4791 487.8074 488.3042 488.5453 488.2957 488.0404 488.442 488.6867 489.0983 488.9744 488.9402 489.4533 490.2171 490.0257 490.144 491.0432 491.9506 492.0932 491.6005 491.3823 490.983 490.8475 491.569 491.349 490.0511 488.9311 487.8391 486.3663 485.2936 484.1463 482.5657 481.121 480.5045 479.9451 479.1118 478.4944 477.5135
400.0577 406.286 404.9928 409.05 410.7288 411.0873 411.051 410.3759 408.903 408.837 409.2551 410.7342 414.259 413.8121 413.6977 414.434 415.7006 416.351 417.198 418.122 418.392 419.2613 420.5655 421.9224 422.618 423.4796 424.157 424.631 424.441 424.1231 424.0278 423.679 423.7335 423.78 424.7345 424.4278 423.2963 421.7807 420.5787 419.395 418.3965 417.7563 416.9779 416.386 415.5883 414.9797 413.7387 412.6855 411.969 410.7287 409.6202 408.6004 407.769 408.1866 408.2328 407.2697 404.8842 403.2179 400.2335 399.5083 398.1946 397.4581 392.851 391.7464 390.3953 389.967 390.577 392.427 393.6245 394.1795 394.513 394.9257 395.392 396.3097 396.8272 398.4415 399.314 400.0615 400.4105 401.0363 401.5597 402.4445 404.0323 405.5497 407.1461 409.905 412.8822 415.685 417.32 418.505 419.2797 418.9685 417.669 416.8029 415.8222 415.0378 413.3673 411.76 408.752 407.0063 404.885 403.29 401.725 400.169 399.0985 397.836 394.8121 392.5357 388.4144 385.9995 384.4021 383.3865 382.9271 382.3271 382.2599 382.5113 383.347 383.7138 384.0231 384.6328 384.8343 385.31 386.1808 386.6529 385.8574 386.0204 385.6207 385.5973 386.1701 387.0261 386.8582 386.4876 386.7275 386.8242 387.0541 387.3076 387.7358 388.3087 389.0392 390.8832 393.0528 396.0338 397.668 400.075 402.449 404.215 406.487 409.8743 411.799 414.4195 417.5455 420.8427 423.7265 426.532 430.1783 433.4995 436.9405 439.1305 441.68 443.8415 445.689 447.754 450.0412 451.6039 453.122 454.3921 455.187 455.4919 456.6364 457.8979 459.1785 460.5248 461.6733 462.9389 464.1574 465.2328 465.458 466.0132 466.7446 468.0441 468.2678 468.5743 469.4079 470.5131 471.7196 471.6846 472.3039 473.2602 473.8634 474.7166 475.7325 476.7999 477.7224 479.0412 480.1889 480.745 481.8857 482.8603 483.6365 484.5566 485.8242 486.819 487.7286 488.1413 488.701 489.6519 490.6931 491.0805 491.2134 491.6902 492.5078 493.1208 493.8524 494.3586 494.7538 495.6925 496.2684 497.3709 498.883 498.972 499.0814 499.5175 499.7137 500.176 500.4638 500.7806 500.6733 500.604 500.9008 501.397 502.2245 502.7159 503.3719 504.006 504.0587 504.7228 505.3876 505.7027 506.0321 506.062 505.68 505.392 505.306 505.8021 505.9783 506.7632 507.8263 508.9119 510.0433 511.0677 511.8858 513.2357 513.06 512.583 512.1574 511.8224 511.46 511.1197 511.1973 511.2717 511.7158 512.6092 512.8012 512.1473 511.4695 511.1221 510.8567 509.839 508.7605 507.96 507.2825 506.8599 505.5778 504.828 503.985 503.0418 502.2426 501.837 501.8853 501.7741 501.3878 500.4713 498.9829 497.615 495.6122 493.3069 491.4846 489.65 488.0455 486.8723 485.7731 484.958 484.3539 483.8816 483.7856 484.6023 486.3398 486.9837 486.9579 487.3394 487.4483 487.6986 488.1962 488.1916 488.2006 488.3914 487.8138 487.7174 488.0636 488.423 488.8893 489.4346 488.9704 489.119 489.8962 490.3092 490.0248 490.5926 491.3683 491.6191 491.2465 490.7797 491.0254 490.9258 491.5533 491.7606 490.5642 489.0118 487.2346 485.7313 484.4032 483.8388 483.452 481.768 480.4958 480.4503 479.7391 478.6464 478.254
398.3312 399.7692 402.4423 407.983 408.0649 408.428 408.406 409.3108 410.404 408.5138 408.6186 409.9724 413.0143 413.0115 411.867 412.4504 413.4004 413.696 414.722 415.4485 416.694 417.5983 418.988 419.997 420.7261 421.5171 422.232 422.267 422.764 422.398 422.98 422.318 421.798 421.939 422.344 422.745 422.2753 420.6263 418.089 417.4409 415.8904 415.1607 414.795 414.3517 413.4475 412.739 411.4883 410.6537 409.7915 408.5808 407.0127 406.1896 405.0269 405.5287 406.599 404.8346 402.4262 399.6624 397.642 396.1532 395.1776 393.846 390.7347 389.6505 388.7702 388.676 389.6243 391.95 392.7843 393.165 393.374 393.4767 393.964 394.694 395.286 396.2623 397.0952 397.3719 397.9522 398.754 399.6715 400.602 402.1395 403.2215 405.829 408.86 411.3615 413.5647 415.8205 417.113 417.4793 416.884 416.5848 415.1474 413.7932 412.8917 411.781 409.569 407.2754 406.419 404.3965 402.5209 400.937 399.419 398.0946 397.13 394.41 391.8743 387.8674 386.2115 384.3003 382.932 382.1605 382.1247 381.8399 382.5732 383.1669 383.236 383.6742 383.6095 383.0071 383.9567 384.1616 384.5241 385.5296 386.3843 386.7896 386.6768 386.7526 386.8544 386.8358 386.5576 386.7508 387.0716 387.3186 387.6664 387.5666 388.7011 390.0542 391.5055 393.1691 395.1465 398.8161 400.381 402.756 405.254 407.5751 409.8297 412.338 414.419 417.566 420.7485 423.985 426.285 430.074 434.383 436.807 439.298 441.765 444.2332 446.1493 448.519 450.578 451.8675 453.359 454.7327 456.2208 457.5828 457.9313 458.5968 459.9719 460.6301 461.5327 462.6364 463.7415 464.8665 465.6033 466.2605 467.0482 467.6595 468.7731 469.448 469.9825 470.5203 471.0807 472.5319 472.956 473.4034 474.5009 475.0511 476.0275 477.1756 478.2109 479.1765 480.3052 481.1787 482.1522 483.5458 484.4373 485.1526 486.1809 487.2673 488.0608 488.8202 489.49 490.739 491.1889 491.7016 492.0849 492.5465 493.227 494.1119 494.7518 495.4052 495.8102 496.8734 498.0495 498.5708 499.3755 499.5695 500.1619 500.3987 500.4225 500.7175 501.1851 501.1656 501.0152 501.0376 501.6445 502.3958 502.8896 503.4026 503.9146 504.4037 504.8802 505.0114 505.5957 505.9708 506.2064 506.3213 506.0364 505.8666 505.7895 506.0817 506.7684 507.4084 508.7161 510.1053 511.2897 511.2697 511.9512 512.9797 513.3796 512.8391 512.6357 512.1711 511.6748 511.5335 512.0045 512.4276 512.9846 513.2549 513.2571 512.645 512.3539 511.5944 511.0397 509.9965 508.7562 508.4339 508.1101 507.9667 506.8251 505.2877 504.7655 503.5902 503.1313 502.8303 502.8097 502.6859 502.1614 501.2824 499.5638 497.7694 496.2227 493.5338 491.0193 489.6505 488.5591 487.4831 486.2413 485.2041 484.7492 484.6131 484.8806 485.4417 486.8445 488.0721 487.9532 487.7589 487.5593 487.9361 488.3627 488.2565 487.7214 487.8488 487.1089 487.1644 488.0469 487.9601 488.3353 489.0067 489.2458 489.4638 489.5335 489.8857 490.2077 490.3043 490.4425 491.1652 490.9641 490.1503 490.4672 490.8784 490.9397 490.6796 489.8705 488.5682 487.0193 485.549 484.1678 483.4283 483.2702 482.4048 480.823 480.1399 479.7277 479.2055 478.4068
395.2013 398.1042 400.3012 405.5015 406.2155 406.323 405.1753 405.5022 408.9863 409.1252 408.1567 409.1963 411.696 411.46 410.768 410.565 411.11 411.6698 412.4857 413.352 414.2401 415.3724 416.273 417.569 418.4329 418.952 419.914 420.3325 420.818 420.839 420.8695 419.799 419.4905 419.201 419.648 419.6863 419.4442 418.6558 415.567 414.7007 413.6423 412.862 412.2195 411.7412 411.1454 410.2014 409.0292 407.8334 407.017 405.8594 404.4705 403.1648 402.1787 401.454 400.1047 398.9522 398.0388 395.6104 394.423 393.4795 392.2793 390.2617 389.3463 387.1682 386.8883 387.018 388.8052 390.4832 391.114 391.5138 391.7362 392.021 392.588 393.472 394.3753 394.6047 395.2572 395.8107 396.5057 397.634 398.188 399.2418 400.502 401.35 403.1891 407.027 408.3355 412.521 414.4887 415.822 416.0861 415.816 414.414 413.326 412.5771 411.969 410.39 408.816 407.368 405.9974 404.107 401.745 399.9054 398.3685 396.9061 395.607 393.293 391.1022 387.8445 386.114 384.2028 382.417 381.24 380.7949 381.3185 381.1736 382.4848 382.7919 383.2391 382.4203 382.9782 383.6741 384.0953 384.1629 385.1851 386.2815 387.4333 388.0549 387.8237 387.3933 387.1791 387.1587 387.535 387.5675 387.6758 387.8386 387.9586 388.5463 389.7415 391.8748 393.54 396.7346 398.779 400.8709 403.53 405.6742 407.5605 409.571 412.134 414.8185 417.8415 420.508 424.0163 426.639 430.814 434.591 437.576 439.7852 442.534 444.548 446.8834 448.9302 450.5215 452.0021 453.371 455.2224 456.6908 458.3047 457.8547 459.1281 460.5158 461.1848 461.929 463.1731 464.3527 465.3413 466.1267 466.8788 467.82 468.0706 468.6878 469.7332 470.2172 470.3657 471.7809 472.851 473.9985 474.284 474.8663 476.0252 476.6148 477.3781 478.2084 479.1344 480.1633 481.6171 482.8124 484.1646 485.3489 486.191 487.1098 487.788 488.3056 489.385 490.4272 491.3434 492.1738 492.4286 493.0886 493.6158 494.394 495.0368 495.9057 497.4266 497.7418 497.2821 498.5299 499.7361 500.0226 500.0604 500.3471 501.282 501.3911 501.425 501.4943 501.6652 501.3613 501.8761 502.0173 502.7876 503.3262 503.8572 504.3562 504.6675 505.1692 505.6292 505.6034 506.0471 506.403 506.3085 506.1689 506.2926 506.3415 506.6665 507.4023 508.2364 509.2501 510.8029 511.6684 511.83 512.1451 513.5865 513.8603 513.4034 512.9074 512.8943 512.3192 512.0416 512.5458 513.0814 513.4335 513.9128 514.253 513.4761 512.5283 512.4219 511.4146 510.9402 509.4577 508.7494 508.4918 507.8819 507.0652 505.8923 505.0431 503.9924 503.7328 503.7511 503.4309 503.0728 502.7606 502.2859 501.1111 498.5099 496.3964 493.9983 491.0473 489.3358 488.3415 487.5444 486.6724 485.9847 485.408 485.656 486.2493 486.6543 487.2435 488.328 488.3899 488.1181 487.9842 487.9511 488.172 487.9034 487.3602 486.7982 487.0025 486.5499 487.332 487.6171 488.4686 489.2219 489.2917 489.5883 489.6212 489.8438 490.7528 490.9061 490.4621 490.6584 490.9431 490.0367 489.7664 490.1282 490.2358 489.5518 488.717 487.6505 486.381 485.4266 484.5709 483.5148 482.5788 481.6772 481.3603 480.9288 480.0158 479.457 478.7668
395.853 395.0146 401.1926 403.8715 403.8865 403.0822 405.1852 405.2626 407.9244 408.5163 408.1229 408.226 411.065 410.369 409.266 408.2775 407.526 408.7618 410.3 410.578 411.7329 413.3145 414.245 415.158 416.039 417.1029 417.348 417.9485 418.512 418.932 418.699 417.9117 417.455 416.4235 416.85 417.564 416.7148 415.4732 413.3636 412.2875 411.4253 410.2003 409.1323 408.7997 408.166 407.4517 406.15 404.7983 404.3473 402.5361 402.1044 398.8453 399.3441 397.316 395.5469 394.4485 392.2639 392.7787 391.9027 390.501 389.3103 388.2036 387.4466 384.893 385.099 385.7976 388.032 388.4386 389.146 389.8413 390.1127 390.677 391.27 391.853 392.387 393.1154 393.6676 394.4413 395.3135 396.1933 397.1008 397.676 399.0723 400.2782 401.2555 404.666 407.8167 410.8743 413.2742 414.1515 414.262 414.3012 412.6892 411.8397 411.242 410.3597 409.1752 408.0428 407.0108 405.4672 403.8024 400.97 398.135 396.1205 394.5567 394.4581 392.9688 391.0682 388.6102 386.2887 384.1021 382.1239 381.1327 380.3753 380.4438 380.7033 382.1454 382.354 383.2673 383.8778 383.1143 383.6439 384.4231 384.6259 385.4111 386.5933 387.4136 388.43 388.5247 388.082 387.9141 387.7523 387.8466 388.0945 388.0905 388.594 388.5569 389.2927 390.387 391.5294 393.5252 396.7119 399.0691 401.2075 403.7318 405.821 407.8245 410.346 412.864 415.479 417.622 420.9815 424.1595 428.076 432.4747 435.28 437.7802 440.713 442.6165 444.9691 447.193 449.4065 451.2296 452.7112 453.9135 455.789 457.1433 458.6833 459.5121 459.9805 461.2269 461.8336 462.76 463.7501 464.6409 465.6931 466.3801 466.949 468.3232 469.0565 469.6071 470.053 470.5124 471.1135 472.6569 473.5324 473.7666 475.0243 475.589 476.1208 476.8718 477.6539 478.8541 479.9386 480.949 482.2771 483.4969 484.1338 485.4755 486.5585 487.5153 488.1899 488.6279 489.9076 490.6785 491.3697 492.1365 493.1115 493.9765 494.2593 495.1836 496.1745 496.8225 497.9933 499.1116 498.6475 498.717 499.9108 500.5062 500.686 500.8275 501.6923 502.0478 501.9802 501.7978 501.9608 502.2055 502.3671 502.7087 502.8697 503.5967 503.9121 504.3607 504.8644 505.0595 505.519 506.001 506.2546 506.4941 506.5295 506.4491 506.5087 507.0143 507.7051 508.5365 509.2102 510.0461 510.8528 511.8401 512.1999 512.8887 514.0663 514.7 514.2668 513.5787 513.1243 512.8984 512.6479 513.0595 513.5747 513.8265 514.1001 513.9738 514.2388 513.3995 512.646 511.9715 511.3708 510.821 509.3583 508.4578 507.4742 506.1635 505.2258 504.9729 504.2241 504.0993 504.6263 504.1993 504.0373 503.3822 502.5277 501.5435 498.6621 495.1087 492.9222 490.7271 489.467 489.0346 488.332 487.5474 486.7737 486.5998 487.024 488.009 488.4745 488.3304 488.4854 488.5974 488.0008 488.279 488.431 488.2466 487.358 486.9097 486.5296 486.4072 487.1954 487.6425 487.8289 488.922 490.013 490.0131 490.42 490.4681 490.3045 490.8571 491.542 491.1481 490.5007 490.4451 490.0292 489.5089 489.4908 489.3776 488.5671 487.5418 486.681 485.7534 484.7053 484.3941 483.8378 482.6264 482.288 482.1925 482.0615 481.2365 480.268 479.148
390.1447 395.6381 397.3272 399.0684 400.7002 400.2153 404.21 405.6109 406.694 406.9156 407.294 407.0388 409.539 409.3267 407.77 406.7003 405.8856 405.426 406.2163 407.6539 410.1917 411.1675 411.675 412.607 413.878 414.781 415.266 415.359 416.6 416.7213 416.415 415.604 414.5215 413.3193 413.6283 414.6843 413.4447 411.2524 410.005 409.209 408.201 407.3906 405.8006 405.6518 404.72 404.168 403.371 402.1628 400.548 399.882 397.515 394.8536 393.9319 394.0054 393.4496 390.2884 388.6531 388.9417 390.1123 388.1785 386.9684 385.7649 384.0611 383.368 383.4838 385.0918 385.9362 386.4429 387.54 388.3108 388.8275 389.4012 390.0313 390.5235 391.1162 391.7082 392.524 392.9697 393.9948 395.084 395.903 397.145 397.7171 398.9589 400.8642 404.0378 406.776 409.614 412.344 413.1548 413.411 412.4315 411.1545 410.312 409.5535 407.915 407.2564 406.9599 406.329 404.894 403.573 401.0976 397.2462 395.4182 394.2286 393.712 392.7787 390.4492 387.4919 385.7286 382.8952 381.6047 380.8297 380.4725 380.1527 380.2979 381.6798 381.633 382.6343 383.463 384.3066 384.157 384.2924 384.7983 385.3716 386.851 387.9202 388.5626 389.1138 388.8199 388.6934 388.5151 388.418 388.6387 388.8998 388.8792 389.5099 390.1258 391.4256 392.9485 394.4293 397.2954 399.4236 401.758 404.13 406.556 409.0225 411.4366 414.0528 416.3862 418.749 422.413 425.8008 429.317 432.602 435.44 438.41 440.782 443.5742 445.32 447.373 449.934 451.639 453.1969 454.484 456.1316 457.637 458.9384 460.292 461.5845 462.5706 462.6034 463.4501 464.559 465.0646 465.7794 466.4453 467.3623 468.4456 469.6697 470.3376 471.1725 471.3469 472.2093 473.2756 474.0166 474.0959 475.1926 476.0273 476.6458 477.5834 478.2196 479.4367 480.8521 481.7244 482.7386 483.671 484.7474 485.5683 486.8193 487.7542 488.5963 489.2425 490.4196 491.4557 491.8095 492.6808 493.5569 494.3997 495.0377 495.6417 496.7071 497.4699 498.2188 498.8083 499.0841 499.4183 500.1839 500.5786 500.8944 501.2056 501.8784 502.4802 502.0888 502.3283 502.9949 502.8916 502.7496 503.1228 503.4696 504.0824 504.3666 504.4552 504.8797 505.6999 505.6984 506.0173 506.4218 506.7757 507.0512 507.0523 507.3081 507.7679 508.6164 509.6409 510.1568 510.7627 511.4275 511.8621 512.429 512.8749 513.9854 515.012 514.7109 514.1626 513.8274 513.4222 513.3108 513.744 514.1484 514.2477 513.9676 513.615 513.4487 513.6796 513.0785 512.2119 511.4137 510.6037 509.4985 507.8065 506.7457 506.0798 505.0921 504.3586 504.6374 504.6402 504.7478 504.7906 504.2034 503.8837 502.6218 500.9177 498.0838 493.9494 491.5949 490.3269 489.3158 488.8881 488.4079 487.8977 487.3347 487.5459 488.2026 489.0267 489.7702 489.3081 488.5173 488.1265 488.0925 488.2017 487.9438 487.6723 487.2602 486.9283 487.2771 487.0743 487.2986 488.3358 489.1209 490.0287 490.9832 490.7933 490.9151 491.4588 491.161 491.168 491.2629 491.2004 490.825 490.153 489.9541 489.2895 488.9243 488.7398 487.9057 486.7937 486.0613 485.3189 484.8169 483.9946 483.9919 483.0071 483.1108 482.9988 482.4524 482.1829 481.3935 480.0667
390.8893 392.8346 393.923 395.9456 398.169 400.6842 402.1207 403.3365 403.4709 404.9347 405.4595 406.7048 408.364 407.824 406.7563 405.321 404.283 403.454 403.418 405.272 405.9564 407.6083 408.8045 410.111 411.1316 412.132 412.6563 412.601 414.0005 413.6532 413.4448 412.4468 411.3675 410.2623 409.8694 411.2118 410.0626 408.3205 407.2187 405.7352 404.853 403.8675 402.2282 401.1967 400.9832 400.7343 400.2824 398.755 397.7866 396.5686 393.2594 390.1982 390.4268 390.3425 388.4531 386.9804 386.1243 386.0451 386.8593 385.2748 385.0119 383.6997 382.4037 382.2584 382.8756 383.6385 384.0092 385.357 386.475 387.331 388.1678 388.005 388.405 388.963 389.537 390.601 391.2097 392.051 393.1728 394.596 395.464 396.2421 395.6416 397.1154 400.5591 403.8365 405.983 409.3311 411.2905 412.229 412.396 411.0157 410.1355 410.167 408.0258 406.1888 405.7655 405.3586 404.7722 403.7811 401.9457 400.2661 396.8382 394.6118 393.5765 392.1134 392.2072 389.7784 386.146 383.5602 381.7356 380.8271 380.299 380.1698 380.3151 381.788 381.351 381.088 381.777 382.677 383.898 384.5264 384.5503 385.3689 386.6784 386.7938 388.3022 389.0163 389.5128 389.1208 389.1231 389.3384 389.3134 389.5158 389.9847 389.8643 389.9454 391.1057 392.3688 393.84 395.2108 396.9266 400.1807 402.507 405.0865 407.73 410.383 413.072 415.68 417.794 420.172 423.585 426.738 430.493 433.31 436.121 439.013 442.02 444.0521 446.069 448.0575 449.8909 452.0667 453.6032 455.045 456.3098 457.6882 459.1214 460.592 462.0128 463.0393 464.3488 464.5503 465.3914 466.1571 466.5066 467.1531 468.2535 468.7615 469.9312 470.9424 471.7364 472.6075 473.2937 473.848 474.3068 474.9771 475.9467 476.3696 477.2941 478.8565 479.4657 480.0504 481.228 482.2498 483.0712 483.9052 484.6779 486.5124 487.3017 488.2863 489.0895 490.183 490.8633 491.7946 492.5092 493.2334 494.0403 494.9876 495.4579 496.1586 496.8618 497.7249 498.4738 498.8139 499.1768 499.7222 500.2424 500.6201 500.5779 500.9244 501.8575 502.2262 502.1925 502.6519 503.33 503.5406 503.1858 503.3895 504.011 504.4614 505.0861 505.1566 505.1232 505.729 506.179 506.2335 506.4525 506.7322 507.3449 507.5665 508.0445 508.7618 509.456 509.9872 510.5472 510.9298 511.9401 512.1635 512.3715 512.822 513.8621 514.7991 514.8044 514.6926 514.8175 514.4648 514.2702 514.4109 514.5974 514.5762 514.1912 513.8033 513.7721 513.4559 512.8325 512.0291 511.1586 510.048 508.8237 507.2727 506.0965 505.5788 505.182 504.8618 504.7616 504.9947 504.6895 504.9222 505.04 504.1713 502.8004 500.7614 496.9681 493.3525 491.1908 490.5143 489.3118 488.4526 488.069 488.0391 487.8432 487.8939 488.7869 489.5791 489.6144 489.1904 488.1812 487.4542 487.7287 487.6919 487.1786 486.8008 486.6831 486.7207 487.37 487.3987 488.1042 489.4356 490.2227 491.1511 491.7832 491.7127 491.4942 491.6802 491.9944 492.1869 492.1868 491.4589 490.7659 490.1714 489.8303 489.3674 488.7636 488.5453 487.6991 486.7383 485.9692 485.3859 484.8109 484.6281 484.106 483.5004 483.3669 483.6997 482.7344 482.3577 482.013 480.8062
388.5103 390.434 391.4323 392.4141 395.067 397.3173 399.7136 400.8211 399.3847 403.4081 403.9478 404.2383 405.5241 406.3605 404.9085 403.1243 402.82 402.0181 401.579 402.574 403.5413 404.477 405.995 406.951 408.7115 409.6213 409.0917 410.269 410.311 409.706 409.732 409.5927 408.8853 407.6827 406.7325 405.9692 406.8965 405.8443 404.0311 402.7947 401.97 399.9121 399.0287 397.9537 397.4805 397.7321 397.6715 396.487 394.7145 390.272 386.8521 387.825 387.4189 386.6875 385.1533 383.8325 383.667 383.5244 383.2386 382.788 382.2228 381.8806 380.379 380.5934 381.1687 381.9262 383.053 384.1032 385.2202 385.8062 386.033 386.4886 387.0177 387.466 388.3043 389.6873 389.9507 391.1634 392.0606 393.57 394.9899 396.3846 397.6848 398.6479 400.1151 402.9563 404.6153 407.803 410.28 411.1609 410.405 409.31 408.6588 407.7505 405.8963 404.88 404.421 403.8138 403.2048 401.8003 400.6107 397.8597 395.8678 393.9678 392.664 391.1537 389.2432 388.1328 385.2036 383.54 381.2153 380.4526 380.1491 379.9156 380.3981 380.3698 379.7464 379.5544 381.0911 381.8213 382.8891 383.781 385.324 386.195 386.7475 387.1699 389.8775 391.0557 389.9014 389.7914 389.6772 390.2519 390.2867 390.5555 390.8721 391.1105 391.4225 392.2307 393.9194 396.4791 396.6487 398.3685 401.0157 403.195 406.007 408.432 411.2751 414.228 416.1495 418.6131 421.187 424.0506 426.1533 430.14 433.945 436.264 439.681 441.7715 444.105 446.1052 448.4159 450.316 452.2877 453.8453 455.102 456.5872 458.1171 459.2966 460.7357 462.1877 463.2579 464.6012 466.0817 466.7902 467.215 467.8193 468.2368 469.1701 469.9076 470.6827 472.1587 472.5787 473.429 474.3404 475.0354 475.3642 475.8412 476.6006 477.4081 478.1386 479.241 480.1793 480.7978 481.762 482.583 483.2841 484.1864 485.2868 486.4325 488.4865 488.8234 489.5897 490.4112 491.2318 491.7468 492.7186 493.5174 494.2598 495.0448 495.6746 496.3342 497.1118 497.7372 498.2502 498.9774 499.5515 500.3066 500.6334 500.9346 500.8423 500.5308 501.7695 502.4544 502.3753 502.5793 502.9734 503.0451 503.3963 503.9616 504.1902 504.9815 505.3807 505.8841 505.9041 505.9991 506.2123 506.506 506.77 507.1333 507.925 508.3261 508.8589 509.7406 510.1488 510.6572 510.7792 511.1278 511.8025 512.5 512.566 513.1579 514.066 514.7416 514.8467 515.1002 515.252 515.53 515.376 514.9814 514.7653 514.9446 514.8126 514.2748 514.163 513.5109 512.6495 511.6932 510.4112 509.3401 508.1535 506.9881 505.9053 505.3465 505.0276 505.1499 505.1814 505.0049 504.9921 505.0507 505.0229 504.1951 501.9958 500.0984 496.3197 492.6237 491.0166 489.8302 489.0877 487.9539 487.8123 487.9847 488.1343 488.1144 488.5679 489.2056 489.2868 487.9831 487.2208 486.5636 486.6304 486.7083 486.0766 486.0567 485.9374 486.2963 486.5952 486.7866 487.6286 489.4756 490.5337 491.2126 492.1336 492.3576 492.5262 492.4545 492.4908 492.4734 492.59 491.7883 490.9689 490.422 489.6353 489.2004 488.7356 488.7313 487.9937 486.855 486.0369 485.6837 484.9874 484.6667 484.1526 483.9763 484.015 484.1391 483.4807 482.7642 482.3762 481.72
385.662 386.5789 388.8883 389.908 391.7986 393.6277 396.7639 397.3569 397.2271 401.4973 401.676 401.935 402.0737 403.7443 403.1767 400.7963 400.613 400.1827 399.872 400.5287 400.8618 401.856 402.4297 403.667 405.0122 405.451 406.099 406.0742 406.1982 406.5345 406.689 406.8083 406.2865 405.0733 404.4083 403.6518 402.8943 402.2605 401.0883 399.5712 398.4281 396.8284 395.0343 394.7426 394.105 394.2309 393.9494 394.7475 388.666 385.537 385.0598 385.331 385.1836 384.6802 382.8817 381.8283 381.4595 381.3003 380.3649 379.9197 379.7527 379.1239 378.1372 377.939 379.1103 380.3355 381.2126 382.3527 383.0678 382.9344 383.5763 384.029 384.89 385.8612 386.84 387.783 388.2785 389.5397 390.913 392.467 394.2105 395.7708 397.223 398.373 399.6942 401.8953 403.5425 406.082 408.244 408.569 407.6283 406.9857 406.6577 405.8087 403.98 403.662 402.9317 401.8827 401.1433 400.7726 400.076 397.7257 395.1292 393.1603 391.522 390.3627 388.4362 386.2389 384.3503 383.2975 381.4048 379.9915 379.5151 379.5001 380.0924 379.6574 379.468 379.3812 380.685 381.1629 382.1625 382.971 383.9792 384.888 386.5593 387.6546 389.088 390.25 390.797 389.8935 390.4907 391.2362 391.3564 391.4997 391.7811 391.9597 392.4524 393.1736 394.1006 397.8 399.5949 400.985 402.7161 404.3515 406.9612 409.7775 412.831 414.959 417.009 419.4824 421.781 424.7909 428.2017 431.343 434.082 437.0992 439.6047 442.268 444.308 446.8515 448.5796 450.499 452.116 453.721 455.348 456.8545 458.128 459.854 460.9279 462.218 463.7536 465.1612 466.0397 467.6887 468.7396 468.3852 469.1686 469.8826 470.6903 471.5238 472.5186 473.3418 474.093 475.2153 475.9375 476.6053 476.715 477.3337 478.0869 479.0363 479.9624 480.621 481.3739 482.1816 482.7189 483.4654 484.2601 485.2304 486.4783 487.8199 489.2961 490.4163 491.0088 491.6989 492.247 493.1339 493.7412 494.2581 495.1409 495.6615 496.1769 497.2143 497.6552 498.1673 498.8851 499.9949 500.3336 500.6714 500.8386 501.2333 501.1971 501.7394 502.3918 502.5035 502.4191 502.5157 502.9057 503.1946 503.8902 504.4452 504.9959 505.5994 505.9491 506.4341 506.3873 506.9098 507.3908 507.6552 507.5913 508.2574 508.9562 509.0656 510.391 511.0951 511.9351 511.5029 511.1151 511.3605 512.1429 512.7335 513.4012 513.9197 514.6957 514.8884 515.1019 515.2855 515.4692 515.8957 515.5767 515.281 515.4581 515.6121 514.8907 514.4166 513.7248 512.4548 511.2076 509.5442 508.3369 507.6266 506.7107 505.7302 505.2005 504.8941 505.0968 505.5325 505.1166 504.8171 504.4856 503.8242 502.7597 501.1161 498.4369 495.6846 492.5116 491.0228 489.4945 488.8772 488.1687 487.4852 488.017 487.9772 487.92 488.2113 488.5323 488.4393 487.3701 486.3967 485.7686 485.4987 485.5345 485.2677 485.5188 485.451 486.132 486.6062 486.814 487.4857 488.7008 489.6483 490.4586 491.8119 492.7493 493.4695 493.5079 493.367 493.2989 493.1665 492.6018 491.4706 491.1596 490.4804 489.655 489.1694 488.7665 488.2583 487.4826 486.7043 485.8217 485.8428 485.4125 484.2812 484.1733 485.1453 485.1154 484.6777 483.6251 483.1701 482.4835
382.3661 381.0146 387.3238 387.5085 388.003 389.6922 394.0269 395.1904 397.9939 399.4215 399.0594 399.67 399.949 400.326 400.0295 398.571 398.4767 397.7885 397.7235 397.871 398.203 399.128 399.349 400.0564 401.2511 402.6943 402.8475 402.5582 403.517 403.6198 403.3928 403.362 402.9422 402.5705 401.765 400.5368 399.9129 398.4862 398.001 396.6455 395.1447 393.798 393.0507 392.3648 390.8316 390.0791 389.1667 388.6585 384.6066 384.1852 383.8253 383.4652 383.3487 381.995 381.0298 380.1955 379.9005 378.832 378.1332 377.4553 377.6389 377.3032 376.218 376.9795 377.8665 378.94 379.856 380.4026 380.0474 381.0166 381.393 382.2072 382.964 383.4426 384.5504 385.0881 387.1073 388.3674 389.9677 391.0298 392.758 394.2733 395.6752 397.5388 398.4395 400.499 402.285 404.1862 405.693 406.012 405.5653 406.2818 405.795 403.982 403.203 402.543 401.6177 400.89 400.2068 400.0074 399.2469 396.8456 395.437 392.9863 391.0692 389.5638 387.7017 385.7731 384.1005 382.9497 381.3123 379.4935 379.3076 379.3209 379.5291 379.1973 378.632 379.0845 379.9823 380.3035 380.8904 381.9709 382.9669 384.1849 385.8206 386.813 387.9397 389.6395 390.996 391.1945 390.7606 391.27 391.8203 392.1807 392.5098 392.8429 393.3725 394.1773 395.1107 398.085 400.1687 402.3208 403.9469 405.9233 408.252 411.131 413.986 415.7529 418.175 420.9655 423.757 427.398 430.1696 432.914 435.1001 437.553 439.962 442.9128 445.465 447.1137 448.6595 450.577 452.283 453.918 455.4743 456.7695 458.371 459.411 460.9478 462.2496 463.6993 465.0893 466.5615 467.7357 468.988 468.8373 469.451 470.1747 471.0351 471.6954 472.2553 473.3923 474.148 474.8762 475.9364 477.5699 477.5952 477.8147 478.721 479.3913 480.1368 480.9205 481.6404 482.3009 482.9417 483.7575 485.2405 485.2542 485.7389 487.3787 488.825 490.2518 491.2394 492.4274 493.6191 494.6859 495.1655 495.2061 495.4516 495.7201 496.1863 496.85 497.1375 497.9855 498.9412 499.5437 499.7273 500.2596 500.4691 500.929 501.4638 501.9944 502.3368 502.1178 502.2355 502.4888 502.8706 503.2381 503.8314 504.403 504.9448 505.2051 505.5249 506.3944 506.8772 507.208 507.8376 508.515 508.3253 508.107 508.7011 508.8344 509.5303 510.988 511.7051 511.7411 510.7321 510.7756 511.6457 512.9869 513.5115 514.0257 514.1561 514.7712 514.8765 515.0127 515.1876 515.24 515.5652 515.8051 515.9244 515.817 515.041 514.106 513.3646 512.133 510.1227 508.6943 507.7752 507.0017 506.499 505.5764 505.2666 505.0806 504.9099 504.9445 505.1579 504.5196 504.0272 502.8412 501.5025 499.7766 497.3085 494.3857 492.1961 490.901 489.652 488.9774 488.7068 487.9646 488.2868 488.2198 487.4363 487.7938 488.238 487.8002 486.6668 485.4922 484.7394 483.943 483.8355 484.009 484.5481 484.7794 485.27 486.3044 486.7293 487.3827 488.0699 489.1949 490.158 491.3525 492.8722 493.9107 494.1963 493.9297 493.7644 493.9753 493.5897 492.4118 491.6203 490.9718 490.4203 490.1339 489.4049 488.7888 488.2452 487.4707 486.8564 486.6237 486.5446 486.2134 485.7134 486.0855 485.6019 485.3271 484.7581 483.6918 482.9973
378.062 379.505 383.455 383.173 384.002 387.1146 389.287 392.778 393.0337 393.9051 395.9325 397.4456 398.134 398.835 398.3483 397.584 396.734 396.188 395.803 395.905 395.793 396.783 397.1737 397.267 397.08 397.8921 399.1229 397.1452 398.2917 399.5896 400.5363 400.3572 400.351 399.7787 399.174 398.17 396.4983 395.6044 392.9774 392.7594 391.5628 391.3908 390.1164 388.3895 387.3326 386.6973 386.8978 384.7132 382.9975 383.0694 382.4206 381.445 381.1625 379.372 378.861 378.8167 378.0658 376.562 376.5753 375.5627 375.5747 375.2229 374.8668 375.3312 375.879 376.8973 378.0145 378.0911 378.3051 379.302 380.1856 380.64 381.4253 381.9432 382.6095 383.0537 385.1432 386.2659 388.0244 389.4569 390.4547 392.4422 394.4865 395.616 397.06 398.948 401.0828 402.3077 403.6557 404.5422 403.905 404.9226 404.426 402.3782 401.743 401.4836 400.841 400.1159 399.818 398.891 398.5976 397.2441 395.0838 393.3824 391.3683 389.8083 387.9679 385.9044 383.8859 382.4168 380.9894 379.702 379.2606 379.3141 379.119 379.2003 378.7004 378.6802 378.7673 378.7423 379.2841 379.8825 380.8858 382.3363 384.7443 386.064 387.536 389.1551 390.8049 392.1638 391.4852 391.4603 391.7517 392.4305 393.1738 393.5707 394.1403 394.7104 397.1759 398.823 400.5925 402.3699 404.9777 406.8616 409.368 411.5667 414.5177 416.7048 419.4256 422.309 425.788 428.6985 431.6305 433.947 436.4176 438.743 441.604 443.65 445.651 446.9042 448.6675 450.7735 452.401 453.8336 455.4341 456.9506 458.3914 459.4782 460.872 462.0798 463.3214 464.6903 466.0611 467.472 468.584 469.689 470.819 470.5427 471.2378 471.9483 473.1971 474.4467 474.09 474.2829 476.0348 477.5029 478.3483 478.9402 478.8651 479.6818 479.8098 480.2573 481.0983 482.1888 483.2515 483.8331 484.9374 485.481 485.516 486.5108 488.2273 489.5625 490.4042 492.144 493.4204 494.6273 495.5661 495.8096 495.9464 495.4773 495.9851 496.9476 497.6645 497.9438 498.5893 498.7485 498.7342 499.2517 500.125 500.8151 501.2653 501.4745 501.7589 501.764 502.2732 502.6145 503.0779 503.3276 503.764 504.3164 504.6988 504.8929 504.943 505.4718 506.3324 506.8937 507.4232 507.7879 508.1138 507.6066 508.2347 508.7971 509.2846 510.0996 510.5427 510.5909 510.5206 510.8682 511.6181 512.825 513.6534 514.1577 514.3854 514.3323 514.7634 514.8502 515.0215 514.9917 515.6267 516.2545 516.412 515.7164 514.5747 513.5653 512.5136 511.3323 509.7231 508.2028 507.5692 506.8802 506.1793 505.6396 505.2534 504.8944 504.494 504.0389 503.9397 503.9268 503.3282 502.1939 500.5114 498.394 495.9905 493.593 492.128 491.3237 490.4021 489.2302 488.2343 487.8833 488.1649 487.9843 487.342 487.5353 487.5479 486.6917 485.2949 484.1936 483.9734 483.0915 483.0559 483.379 483.6381 484.1137 484.6823 485.2961 486.0391 486.7513 487.2217 488.9011 490.075 491.3274 493.2615 494.4238 494.7881 494.4712 494.2768 493.9973 493.9607 492.9526 491.9476 491.3226 490.752 490.6324 489.9746 489.4546 489.0677 488.5672 487.9875 487.9998 487.9223 488.0992 488.217 487.8546 486.4553 485.3151 485.1983 484.1873 483.343
373.5448 371.4667 373.5903 376.1059 381.0476 383.8893 385.6299 387.7902 389.5233 390.922 393.2522 394.816 395.6887 396.199 395.5527 395.362 395.054 394.9005 394.372 394.2515 394.161 394.0555 394.0875 394.5405 394.42 394.277 394.2043 393.707 393.4188 393.7492 394.1855 395.0873 397.5865 397.497 397.1528 395.5917 393.7675 392.2313 390.4633 388.4076 388.076 387.6232 386.8979 385.2254 383.939 384.3625 384.5423 381.179 381.2567 380.7687 380.6078 379.4503 378.9993 377.49 377.4022 376.8637 376.0113 375.5082 374.4161 373.7767 373.1377 373.1952 373.2376 373.235 374.0667 374.8353 375.8473 376.193 376.9516 378.3263 378.8534 379.1192 379.898 380.3416 381.1606 381.5363 383.0423 384.7332 386.2902 387.5254 388.7989 390.497 392.8394 394.418 395.4685 397.3189 399.1196 400.8736 401.8763 402.5566 402.681 402.5301 401.5065 400.5367 400.696 400.4965 399.9317 399.2952 398.598 397.62 397.168 396.7419 395.0891 393.1257 391.8607 390.3869 388.6999 386.9168 385.0623 383.1461 381.2712 380.0082 379.5385 379.3939 379.0478 378.9837 379.1646 380.3035 380.2535 380.3633 378.7659 379.0753 379.9516 382.343 383.9245 385.355 387.2717 388.9805 390.676 392.422 392.1441 391.7964 392.1679 392.9114 393.3193 393.7614 394.4245 395.2214 396.2337 399.0111 401.261 402.8302 405.2383 407.71 410.266 413.2935 415.2476 417.5023 420.331 422.901 425.3175 429.152 431.8425 434.8285 436.942 439.57 442.262 443.8805 445.5141 447.0565 448.614 450.1494 452.12 453.269 455.0861 456.6992 458.0406 459.4424 460.6166 461.748 462.795 464.092 465.258 466.548 467.7 468.8659 469.787 470.0152 470.7111 471.3309 473.476 474.0246 474.5399 475.1493 475.096 476.628 477.6483 478.6697 478.7092 479.6696 480.1213 480.1311 481.1593 481.923 482.84 483.8449 484.5045 485.8782 485.4125 486.533 487.3469 488.7897 490.1833 491.041 491.9481 493.376 494.301 494.91 495.1926 495.6003 496.3544 496.2842 497.2335 497.6993 497.9601 498.1713 498.4246 498.8637 499.5304 500.4815 500.9544 500.6847 501.2643 501.3513 501.6721 502.7578 502.8694 503.236 503.9307 504.1987 504.4744 504.813 504.8206 504.9968 505.0717 505.7489 506.6405 507.0746 507.0545 507.2909 507.4941 508.5972 509.1571 509.7692 510.0717 510.1856 510.5428 511.0089 511.7704 512.5356 513.1995 513.8475 514.0531 514.0334 514.2466 514.9482 515.6996 515.4018 515.8117 516.4055 516.6049 515.9722 514.4144 513.2849 512.0499 510.6858 509.3867 508.0699 507.3663 506.7631 506.2223 505.6022 505.0347 504.5747 503.5319 503.1371 502.8629 502.411 501.7975 500.7282 498.8286 496.9443 494.8137 493.0853 492.1144 491.4666 490.5306 489.3553 488.3602 487.9188 487.7306 487.2392 486.9951 487.1725 486.7741 485.1173 483.6746 482.2645 481.9915 482.4164 482.4359 483.2863 483.6477 483.8639 484.7607 485.1684 485.7131 486.2343 486.6265 488.5515 490.9087 492.4081 493.9553 494.7713 495.0717 495.3967 494.9742 494.2271 493.9312 493.5451 492.6489 492.2659 491.8196 491.1671 490.5119 489.6132 489.3804 489.4359 489.6225 489.465 489.7161 489.6724 489.4239 488.5759 487.6576 486.1725 485.0337 484.5197 483.6002
367.8852 368.8235 370.8034 373.5041 376.1136 381.404 382.9528 385.236 386.994 388.0299 389.8295 391.4365 391.6396 392.2609 392.0987 391.8677 392.034 392.0373 392.5543 392.201 392.3485 392.0923 391.6103 391.8485 391.9367 391.7397 392.0357 391.9303 391.19 390.89 390.7215 390.8154 392.852 394.7248 393.9128 393.111 391.1981 389.4075 387.8912 385.296 385.1356 384.2238 383.6624 380.283 381.5953 381.353 379.5538 379.7592 379.457 379.1587 378.6094 377.5746 376.2594 375.7276 375.4923 374.6526 373.7693 373.29 372.753 371.8387 371.7601 371.6648 371.763 371.7713 372.342 373.1624 373.517 374.781 375.289 376.105 376.6285 377.0908 377.5837 378.945 379.77 380.471 381.736 382.5872 384.1779 385.6886 386.6867 389.2561 391.1165 392.7188 393.978 395.508 397.4226 399.5775 400.3423 401.0235 401.6449 401.002 399.9128 399.428 399.408 399.3795 398.842 397.98 397.3475 396.5745 395.2023 395.6225 395.2029 392.9803 392.071 390.7058 388.6756 387.7329 386.4501 384.2427 381.874 379.9906 379.2822 378.8932 379.024 379.7324 380.1531 378.6729 378.772 378.5343 378.8689 379.2256 379.289 382.2515 383.574 385.0466 387.135 388.6987 390.597 392.868 393.0152 392.4018 392.6548 393.8954 393.9325 394.1556 395.2065 396.3545 398.3598 400.153 401.954 404.23 407.1204 409.1328 411.2358 414.1192 416.1122 419.11 421.41 423.771 426.362 429.327 432.044 434.92 437.569 440.474 442.1043 443.88 445.4877 447.1967 448.6284 450.066 451.3697 452.766 454.5759 456.037 457.732 459.2169 460.4097 461.4665 462.6 463.621 464.6997 466.0077 467.2884 468.0535 468.4308 470.0381 470.7675 471.4803 471.3991 473.0634 473.7859 474.4241 474.2106 476.0124 477.159 478.397 478.6854 479.4677 479.9853 480.3209 480.8273 481.468 482.1849 484.1553 484.7161 485.0515 485.5639 486.2461 487.0577 487.6673 489.1425 490.0002 491.004 491.4062 492.4 493.1738 493.9448 494.7784 495.3591 496.0764 496.3799 496.8557 497.0942 497.8662 498.381 498.6725 499.0995 499.8562 500.3213 500.1315 500.4214 501.4083 501.4294 502.0242 502.877 503.0644 503.5698 504.2291 504.5004 504.5416 504.9063 505.0017 505.005 505.2622 506.2233 506.5643 506.4989 506.9041 507.3481 508.0095 508.7781 509.1582 509.7874 510.0755 510.3054 510.677 511.4691 512.3907 512.673 513.5565 513.9961 514.0217 514.3903 514.6819 515.4929 515.7429 515.4761 515.8133 516.1448 515.8658 514.0142 512.6875 511.4735 510.0577 508.7755 507.8419 507.0387 506.7144 506.2934 505.4249 504.7744 504.2136 503.3863 502.3937 502.1357 501.1481 500.0156 499.2117 497.0998 495.3888 493.9964 492.0417 491.3282 491.1133 490.0297 489.0222 488.6285 488.3682 487.9681 487.0966 486.4688 486.1436 485.3587 483.7355 482.3394 481.478 480.52 480.6884 481.462 482.3801 482.9968 483.4164 484.1401 484.838 485.77 486.7576 487.3066 488.626 491.0443 493.0958 494.6127 495.5127 495.8451 496.021 495.5588 494.8082 493.9821 493.7038 492.856 492.6585 492.7981 492.1332 491.6006 490.6938 490.2637 490.543 490.4946 490.7012 490.3969 490.3465 490.1707 489.138 487.6228 486.8953 485.859 484.7888 483.9268
365.2469 366.7931 368.8918 371.313 373.9189 376.1563 380.2099 381.7859 384.625 385.024 385.6615 386.4193 387.0237 388.363 388.288 388.1717 388.5597 389.466 390.4173 391.0215 390.856 390.404 389.7733 389.4234 389.9847 389.4174 388.98 389.256 389.545 388.9125 388.2503 387.3515 387.1402 388.9478 390.5645 389.5608 387.9153 385.9622 383.1945 382.7169 382.7024 381.4224 380.104 378.966 379.146 378.9963 378.298 378.3413 377.6947 376.7752 375.7729 374.8503 373.6053 373.5044 373.5713 373.0095 372.2526 371.4616 370.8908 370.2981 369.8242 369.9504 370.0195 370.177 370.3112 370.9918 372.0852 373.0758 373.7892 374.4727 374.9078 375.2947 375.6707 377.04 378.3772 379.4035 380.4317 381.5615 382.9933 384.0853 385.4695 386.6335 390.0868 391.2514 392.755 393.7435 395.8985 397.4422 398.4863 399.0207 399.5721 398.8685 398.2538 398.784 398.701 398.0202 397.5242 397.1214 396.447 395.0116 394.8868 395.4561 395.4778 394.3285 392.9007 391.5774 389.9501 388.8466 387.9373 385.6773 382.7586 380.5324 379.1747 378.6805 379.3239 379.7796 379.617 379.5163 378.5694 379.0012 378.9991 378.979 379.1083 382.2085 383.5805 385.2027 386.6644 388.7115 390.7265 392.597 394.4496 393.5439 393.6053 395.6416 395.0251 394.968 396.1394 397.0766 399.7317 401.3661 403.635 405.4392 407.7515 410.248 412.3755 414.6241 417.222 419.8313 422.911 425.501 427.273 430.381 433.11 435.364 438.676 440.9248 442.2628 443.992 445.464 446.589 448.534 449.709 451.32 452.7885 453.9228 455.4213 457.341 458.9464 460.3 461.248 462.093 463.074 464.2052 465.2895 466.6143 467.8141 467.7581 469.0795 470.3941 470.8876 470.9385 472.4345 473.1313 473.847 474.6734 475.4026 476.2065 477.609 478.829 479.9035 480.2776 479.9747 480.5147 481.2194 481.706 482.6537 484.128 484.6404 485.1494 486.2213 487.2766 487.4966 488.0569 488.9283 489.6974 490.2121 491.2339 492.126 492.896 493.6727 494.3152 495.174 495.6098 496.4034 496.8145 497.0587 497.8544 498.4584 499.0647 499.2982 499.4891 499.9098 500.0804 500.475 501.3261 502.0326 502.6759 503.0721 503.7199 504.1311 504.3725 504.2407 504.6158 505.142 504.9121 505.1021 505.7812 506.3569 506.2013 506.5601 506.9024 507.6371 508.4114 508.9381 509.703 509.9614 510.1357 510.7703 511.3811 512.3738 512.9004 513.2106 514.0974 513.994 514.5385 514.913 514.8121 515.1823 515.3766 515.5307 515.4847 515.5067 514.3499 512.8444 511.1715 509.6453 508.4365 507.549 506.9757 506.5028 506.9268 505.942 504.6211 503.8315 503.2815 502.3121 501.325 500.6238 499.4745 498.056 496.1122 494.252 493.1707 491.5512 490.529 490.2694 489.6561 489.0875 488.4129 487.8607 487.1576 486.4806 485.7173 485.1402 484.0125 482.5294 481.3061 480.5576 479.9835 479.9998 480.4149 481.2986 482.5557 482.909 483.5784 484.4752 485.3842 486.8711 488.5313 490.3476 491.6893 493.2364 494.7322 496.0822 497.0596 496.6523 495.7638 495.3009 494.5743 494.0009 493.6877 493.2272 493.3679 493.4167 492.6904 492.3518 492.2589 492.175 491.6875 492.1284 491.5952 490.3457 490.4059 489.8217 488.0693 487.05 486.4743 485.5196 484.3622
362.8068 363.9408 366.2904 369.3809 371.5468 375.6794 377.3065 379.1095 380.31 380.975 382.237 382.508 383.3955 384.9703 384.5244 384.9723 385.2727 386.1525 387.424 387.529 387.8935 387.6452 387.398 386.9225 386.91 386.893 386.3263 386.4442 387.4167 386.6615 385.5952 384.607 383.535 384.7746 387.084 386.036 384.1613 381.602 380.4908 380.002 379.5976 380.4393 378.8989 377.5742 377.5173 377.4225 376.8206 376.5586 375.9522 375.0061 373.7338 372.723 372.0463 371.7797 371.5684 370.7943 370.2973 370.0885 369.3698 368.96 368.326 367.9578 368.1819 368.7206 368.7312 369.522 370.2253 371.4388 372.1818 372.8955 373.225 373.2205 374.0383 376.0246 377.058 377.8519 378.9818 380.556 381.9712 383.3545 384.687 385.7839 388.595 390.3698 391.5715 392.8295 394.3779 395.7047 396.885 397.4064 397.736 397.356 397.7333 398.064 397.3855 397.2185 396.5952 396.129 394.8007 394.7139 395.0429 395.4113 395.9574 395.4961 394.6292 392.9684 391.9377 391.0243 389.3288 386.7273 384.1306 381.6609 379.9009 378.6113 378.2871 378.3632 378.1622 379.2274 379.3555 378.2993 378.8687 378.6476 380.5413 382.3985 383.7446 385.071 387.223 388.8333 390.545 392.699 394.418 394.6037 393.9979 395.7122 395.0562 395.7209 398.0608 399.3527 400.918 402.7277 404.49 406.7871 408.976 411.7131 413.8593 416.062 418.7134 421.2639 423.932 426.049 429.043 431.39 434.3341 437.1889 439.229 440.9024 442.4164 443.6665 445.2854 446.8 448.253 449.7071 450.9665 452.5869 453.7034 454.861 456.487 458.25 459.8242 460.575 461.7345 462.6146 463.7646 464.9193 466.0561 467.3987 468.0978 468.3863 469.4554 470.0009 470.6979 471.0806 472.0458 472.6062 473.9811 474.7478 475.416 476.7075 477.9633 478.9792 479.3855 479.8314 480.5941 481.2636 481.6239 481.9239 482.8295 484.438 484.8873 486.0265 486.7073 487.2102 488.1113 488.7953 489.649 489.9295 490.7986 491.2415 491.8227 492.3547 493.1599 494.3619 495.418 495.917 496.3864 496.6651 497.0806 497.6664 498.2065 498.8347 498.8647 499.3632 499.5624 499.9535 500.5701 501.5097 502.4067 502.8642 502.6563 503.5681 503.9783 503.9302 504.2373 504.7904 505.013 504.9259 505.0075 505.2802 505.7549 505.5252 506.2926 507.2602 508.1703 508.1738 509.6457 510.415 510.5009 510.9406 511.8429 512.1785 512.7815 513.192 513.858 514.1833 514.4946 515.1755 514.9694 515.03 515.1924 514.9569 515.2983 515.1534 514.3567 513.1898 511.1324 509.5387 508.7714 507.6511 506.9709 506.2073 506.4358 506.4852 504.6733 503.6637 502.9163 501.843 500.7738 500.1181 499.3583 497.7163 495.1821 493.2847 492.0283 491.1025 490.2692 489.8318 488.9273 488.7185 487.8907 486.6958 486.2137 485.7869 485.1011 483.9417 482.8382 481.1785 480.3263 479.5479 478.8238 479.007 479.4189 480.1429 481.761 482.7172 483.4257 484.5591 485.5373 487.2307 488.9324 490.8207 492.4603 493.7763 495.0088 496.2926 497.3801 496.8837 496.0689 495.5577 495.2997 494.707 494.7857 494.781 494.4529 494.2611 493.889 493.4021 493.7796 493.6371 492.7509 493.3217 492.9572 491.179 490.4717 489.762 488.5661 487.4155 486.5636 486.0496 485.3336
360.2708 361.0421 362.772 367.7142 368.8308 370.3146 374.9153 375.721 377.4227 377.3387 377.1857 378.4463 379.8896 380.304 381.3105 381.505 382.3456 383.816 384.948 385.1 385.0732 384.7437 384.8235 384.9555 384.6423 384.735 383.9366 383.3507 384.331 383.6755 382.9492 380.9618 381.303 382.127 381.672 382.3384 379.9228 378.647 378.2776 377.4517 377.671 377.2937 376.396 376.097 375.5092 375.1481 374.8973 374.419 374.2022 373.1397 372.1315 371.4071 370.7757 370.193 369.8553 369.4062 369.0584 368.7126 368.0467 367.1152 366.7096 366.5762 366.801 367.2315 367.5602 367.9175 368.615 370.2005 370.8927 371.7112 371.9363 371.9743 372.951 374.749 375.7368 376.681 377.9897 379.519 380.9065 382.371 384.17 385.4507 387.2077 389.4177 390.728 392.0205 392.88 394.5065 395.6763 396.232 396.4619 396.3073 396.894 396.616 396.101 396.476 395.8467 395.4949 394.3827 394.5868 394.9333 395.1848 395.8039 395.9875 395.2458 394.3744 393.3247 392.221 390.2433 387.507 384.9017 382.5817 380.1971 378.5545 377.8907 378.9541 379.2133 377.6611 378.8289 377.4909 378.2888 379.3198 380.609 382.2525 383.903 385.613 387.1353 388.775 390.1982 392.3513 393.973 394.8085 395.1585 394.6425 395.2484 396.2059 399.0708 400.584 402.302 404.2689 406.0732 408.5322 410.413 413.113 415.56 418.326 421.1132 423.7199 424.9615 427.0007 429.9328 432.8795 436.1976 438.1834 439.313 441.0142 442.3038 443.5882 444.943 446.401 448.041 449.4849 450.651 452.1365 453.519 454.6025 456.258 457.7173 459.114 460.0235 460.9947 462.001 463.082 464.1244 465.339 466.4339 467.5934 468.4449 468.8418 469.6229 470.2273 470.3559 470.9492 471.9291 473.1653 473.4782 474.5775 475.5829 477.0671 477.9727 479.102 479.7948 480.5008 480.9024 481.678 481.2755 482.801 483.565 484.4728 485.3883 485.9241 486.5527 487.2368 488.1407 488.9042 489.3924 490.17 490.8371 490.9592 491.5852 492.3428 493.5844 494.4826 495.0212 496.0372 496.2788 496.629 496.8343 497.3654 497.7235 498.3984 499.024 499.485 499.5263 500.149 501.3745 501.5207 502.4481 502.6977 502.58 503.4615 503.7119 503.8089 504.6481 504.7157 504.8464 504.9084 504.9771 504.8694 504.7625 505.4523 506.9982 507.5677 507.7864 508.8351 510.7449 511.0463 511.3193 511.5976 512.2979 512.6174 513.2932 514.0698 514.7849 514.8564 515.21 515.3385 515.3104 515.155 515.0209 515.4071 514.3716 513.5756 512.4189 510.8695 509.2177 508.5776 507.7429 506.8649 506.2808 505.5724 505.4762 504.7824 503.7394 502.8806 501.6795 499.891 499.1068 498.295 496.6473 494.5617 492.5086 490.981 490.4084 489.7916 488.8972 488.3401 487.5927 486.8254 485.5786 484.9182 484.4956 484.1543 482.6087 481.1991 480.0056 479.1055 477.9664 477.8229 477.9936 478.3766 479.1959 480.408 481.8282 483.1029 484.6336 486.513 487.9996 489.8327 490.8667 492.0609 494.1358 495.7569 496.1896 496.6475 496.7102 496.0411 496.0497 495.6265 495.8031 495.5666 495.5 495.4034 494.9164 494.8318 494.3755 494.5387 494.222 493.3641 493.3648 493.331 491.9016 491.0332 490.0897 489.103 488.1049 487.7749 486.8961 486.0091
361.1003 359.388 360.4639 363.1357 368.2888 370.1723 372.1514 373.0853 372.1245 372.293 372.6677 374.8525 375.507 376.7477 378.836 378.455 379.496 380.786 381.561 382.0946 381.9805 382.2074 381.8398 381.7057 382.2415 382.1637 381.4045 381.1257 380.9716 382.0846 379.2549 378.5183 377.5327 377.901 378.7905 377.825 377.0867 376.6663 376.3458 375.425 375.4903 375.0956 375.0576 374.9535 374.1348 373.834 373.455 373.071 372.5365 371.3349 370.4981 369.9476 369.2638 368.8137 368.1831 367.7148 367.4202 366.8105 365.9677 365.606 365.162 365.6113 365.824 365.9168 366.3239 366.887 368.042 369.4147 369.855 370.6945 370.994 371.47 372.674 373.7818 374.807 375.6579 377.162 378.6275 379.7277 381.2383 383.976 385.0273 385.6493 386.975 389.4547 391.0282 392.492 393.448 394.5014 395.1166 395.0736 395.5504 395.4893 396.0428 395.7514 395.6172 395.0453 394.4767 394.6774 394.4793 395.4402 394.967 395.9732 396.4712 395.4515 395.0915 394.1274 392.5654 390.951 389.4406 385.9856 383.1399 380.6824 378.3424 377.4947 377.7433 378.6517 378.5771 378.3671 377.1009 377.6458 379.3159 380.346 382.1007 383.9133 385.282 386.9825 389.0747 390.875 392.8303 393.9691 393.773 394.665 395.4741 395.9907 398.3853 400.284 401.618 403.4609 405.471 408.111 410.307 412.3615 414.518 417.5385 419.98 423.683 426.3248 428.0503 429.7689 430.4459 434.2779 437.084 438.3375 439.7348 440.964 442.1733 443.4818 444.5915 446.124 447.7537 449.2101 450.5233 452.0124 452.9818 454.2216 455.971 457.031 458.1993 459.3362 460.3197 461.4116 462.5488 463.7033 464.6288 465.6975 466.8968 467.8942 468.891 469.0384 470.182 470.5601 470.087 471.0769 472.0493 472.993 473.5317 474.3716 476.164 477.114 477.9472 478.923 479.583 480.1786 480.7455 481.037 481.6928 482.5041 483.278 484.3045 484.8974 485.0977 485.5588 486.7549 487.9599 488.6137 489.4997 490.3223 490.3601 490.4097 491.6416 492.2686 493.7341 494.0742 494.2764 495.1913 495.7468 496.0677 497.0599 497.5426 497.7599 498.5841 499.4931 499.8318 499.6342 500.6323 501.2682 501.5491 502.5226 502.8195 503.2119 503.3638 503.71 504.0492 504.9619 504.6585 504.6505 504.8431 504.8843 504.5473 504.9234 506.2257 506.6808 507.6868 508.7243 509.9476 510.8687 511.1239 511.6811 512.4111 513.1259 513.6317 514.4471 515.0182 514.9958 515.264 515.4237 515.5653 515.3178 515.066 515.5701 514.7291 513.0016 512.2531 510.6682 509.8011 508.4732 507.5819 506.8138 505.9618 505.7748 505.0287 504.3552 503.5112 502.2555 501.0397 499.6388 497.9517 496.8061 495.092 493.3671 491.9037 490.3569 489.3214 488.8921 487.8519 487.3595 486.3999 485.7816 484.8247 483.6164 482.7294 482.0905 481.3342 479.7182 478.7928 478.1577 477.6033 477.3545 478.0568 478.1214 478.7535 479.4036 480.905 482.9723 484.8396 486.6053 488.9709 490.2858 491.5208 492.58 494.4704 496.2359 496.7453 496.3106 496.0167 496.1283 496.2413 496.1065 496.1088 496.3343 495.6104 495.1204 495.4793 495.61 495.4815 495.0142 495.001 494.1899 493.5037 493.2377 492.5557 491.6362 490.9626 490.1273 489.0787 488.681 488.5101 486.543
359.532 360.0187 360.5737 362.401 365.4071 366.7343 369.224 369.824 369.528 369.0355 369.365 370.6222 372.655 372.509 373.781 375.9585 376.561 377.4215 378.2107 378.6245 378.675 378.658 378.8714 378.7211 377.94 380.22 379.7733 379.2347 378.287 377.2904 376.364 376.304 375.4858 374.4684 374.5894 373.693 373.1479 373.3114 373.5964 372.6317 373.0143 373.385 373.556 373.2895 372.605 372.4263 372.0654 371.4524 370.4704 369.4036 368.7261 368.0406 367.3856 366.9052 366.527 366.2755 365.6657 365.133 364.7712 364.1285 364.76 365.0135 365.1434 365.365 365.714 365.8125 367.0573 368.2456 368.7913 369.4493 370.058 371.192 371.978 372.9753 374.0246 375.1177 376.4087 377.749 378.996 380.1588 381.389 383.0758 384.1843 385.399 387.6422 389.1507 391.182 392.2802 393.043 393.592 394.0372 394.92 394.7154 394.491 394.58 394.8911 395.225 395.3176 395.2309 395.1929 394.7803 395.7534 396.3614 397.2841 396.6372 395.3743 395.0195 393.5756 391.4519 389.9988 387.3636 383.0942 381.0641 379.1883 377.6891 378.1177 378.4271 378.2622 376.9838 377.0955 378.0222 379.1315 380.3723 381.8577 383.593 385.581 387.628 389.699 391.489 393.549 395.1491 394.5857 395.625 396.0312 396.5296 399.2615 400.7854 402.691 404.682 407.0465 409.439 411.303 414.0648 416.316 418.6756 422.1775 425.1783 427.836 429.55 431.8163 433.9923 435.356 437.1995 438.5302 440.1849 440.0435 441.6877 442.7094 443.865 444.5976 447.5756 448.936 450.5195 451.615 452.6931 454.3526 455.5845 456.7268 457.5229 458.6637 459.7903 461.011 462.207 463.3138 464.3179 465.349 466.3196 467.34 468.0504 468.2167 469.0536 469.8632 470.1798 470.5462 471.5263 473.1395 473.7662 474.7045 475.6053 476.3495 477.223 477.925 478.737 479.466 479.7356 480.2072 480.403 481.3967 482.508 482.9517 483.4535 484.767 485.3495 486.1445 486.8398 487.6998 488.8078 489.667 489.9241 490.2027 490.7668 491.7053 492.3195 493.3514 493.2245 493.8803 494.6176 495.5611 496.3404 497.0667 497.5309 498.0826 498.7316 499.4936 499.4519 499.736 500.0983 500.8976 501.9017 501.924 502.6093 503.1342 503.2583 503.4483 503.9194 504.4462 504.5315 504.6902 504.3656 504.2869 504.3701 504.7996 505.4463 506.8244 508.4361 508.9417 510.5039 510.9962 511.5738 512.5882 513.3885 514.0237 514.4459 514.8974 515.0928 515.4664 515.8788 515.8466 515.9168 515.3724 514.8018 514.2379 513.0511 512.1937 510.8604 509.7139 509.3549 508.1619 506.8926 505.9004 505.2484 504.6793 503.4101 502.4096 501.152 499.743 498.4397 497.1373 495.373 493.5878 491.8992 490.6866 489.4559 488.1638 487.5305 486.8119 486.1526 485.7613 484.8131 484.2339 483.1647 482.0173 480.8598 480.0452 478.899 477.907 477.3717 477.14 477.4576 478.0511 478.5451 478.8685 479.489 481.4098 483.6945 484.9818 486.8649 488.8466 490.6187 491.7824 493.4997 495.0201 496.0725 496.3304 496.1429 495.9262 496.1634 496.5922 496.4513 496.2831 495.8843 496.0811 495.4995 495.6366 496.4286 496.0981 495.8008 495.2519 494.9633 494.5445 493.7734 492.9553 492.0349 491.5344 490.8756 489.9894 489.3398 488.4848 486.8166
359.257 359.3107 359.4299 359.901 360.127 363.4722 364.732 366.7933 366.5435 366.9165 367.1038 368.3694 369.306 370.4485 371.135 372.3755 373.7336 373.357 373.7023 374.6397 375.254 375.5105 376.0924 375.6515 375.5797 377.3316 377.3104 376.9373 375.932 375.6042 375.1535 373.4293 373.2694 371.9815 371.3845 371.522 371.195 370.8365 370.861 371.3765 371.5558 371.875 372.2005 371.7018 371.198 370.7823 370.3758 369.583 368.6171 367.3335 366.4722 366.1163 365.8695 365.4924 365.0862 364.6892 364.2489 363.9037 363.5218 363.803 364.1728 364.332 364.6263 364.7737 365.101 365.6794 366.473 367.4 367.945 368.5967 369.3954 370.6 371.6087 372.5148 373.7891 375.0851 375.934 377.0755 378.3075 379.4815 380.5151 381.7012 381.0605 384.7058 387.0099 388.872 390.4865 391.2786 391.9973 392.93 392.3034 392.9952 393.3213 394.3693 394.4314 394.4883 394.6416 394.9543 394.876 394.937 395.8877 396.2553 397.0766 397.4933 397.497 396.8412 396.0175 395.8924 394.6721 391.7668 387.393 383.4121 380.7631 379.4574 378.7722 378.27 378.1742 377.5567 376.399 376.9248 378.279 378.868 380.091 381.9077 383.5125 385.6777 387.905 389.8114 391.7565 393.7696 395.439 396.4375 397.0664 397.9955 398.738 400.556 402.1823 404.324 406.051 408.184 410.41 413.076 414.9756 417.514 420.0963 423.0864 426.288 428.803 431.5372 433.5089 434.7259 436.5795 437.8927 439.7301 440.8245 440.3618 441.7216 442.8948 443.9261 444.7509 446.2693 447.9711 450.268 451.33 452.542 454.1502 455.2717 456.4572 456.6334 458.3623 459.518 460.6718 461.947 462.7923 463.8859 465.043 465.1207 466.9722 467.7498 467.4876 468.4134 469.5233 470.2987 470.5963 470.9821 472.3686 473.3179 473.4791 474.773 475.0622 475.7884 477.197 477.5438 478.3463 478.8045 479.2232 479.895 480.8021 481.9402 482.9036 483.8888 484.4156 484.9734 486.0536 486.6067 487.184 488.2142 488.148 488.8941 490.1427 490.8084 491.4062 491.7846 492.3672 492.7949 493.2835 493.7672 494.5853 495.67 496.5482 497.1792 497.7904 497.6855 498.4693 499.2617 499.2022 499.666 500.2769 501.369 501.628 501.653 502.332 502.5612 502.7581 503.0548 503.6977 504.5976 504.5807 504.2012 503.6028 503.2108 503.5317 504.2523 505.3739 507.2756 508.3762 509.5158 510.8482 511.3681 512.1474 512.9083 513.524 514.3353 515.0909 515.3781 515.8043 516.4286 516.5362 516.5754 516.2649 515.3991 514.0702 512.9393 512.0649 511.1552 510.2968 509.5098 508.401 507.0405 505.823 504.7348 503.6152 502.507 501.4616 500.243 498.9477 497.2737 495.4456 493.8628 491.7672 490.5865 489.8921 488.9099 487.6968 486.4815 485.1888 484.5811 484.4719 483.9083 482.6978 481.7632 480.7664 479.3771 478.3419 477.8008 477.0579 476.9167 476.626 476.9533 477.3703 478.0523 479.0006 480.292 481.6534 484.3517 485.7393 487.0536 489.2597 490.9358 492.3294 494.0198 496.006 496.2863 496.0076 496.0687 496.1168 495.7286 495.9263 496.3673 496.4938 496.4595 496.2947 496.5481 496.1784 496.8574 496.8021 496.4423 495.8618 495.3476 494.9585 494.4006 493.4161 492.4415 491.8838 491.6211 490.674 489.5901 488.3069 486.592
359.1709 359.1772 359.1346 359.234 359.349 360.071 361.3944 362.4353 363.6459 364.98 365.4574 366.4945 367.3725 368.033 369.1792 370.612 370.9887 371.0262 370.591 370.719 371.921 372.5023 372.8335 372.8094 372.7035 374.3917 374.0572 374.0697 373.8491 373.9544 373.0095 371.3355 370.8717 370.2958 370.0552 369.675 369.6503 369.364 369.9615 370.164 369.7773 369.8087 369.4827 369.4417 369.3158 368.4239 368.126 367.1172 366.1581 365.4171 364.9362 364.4412 364.3266 363.9342 363.7083 363.4067 363.2517 363.105 363.285 363.4765 363.6015 363.968 364.025 364.176 364.3355 365.1268 366.101 366.5032 366.9391 365.9987 367.5159 368.6518 370.1469 372.0294 373.7727 374.686 375.559 376.6165 378.1019 378.947 380.075 380.128 381.1166 383.1459 386.4304 388.3344 389.6635 390.806 391.52 392.9333 393.667 394.0531 394.519 394.2302 393.9865 393.8066 393.538 393.66 393.887 394.8269 396.3022 397.6646 397.8723 397.6641 397.7219 397.635 397.4872 397.9423 397.4985 393.847 389.0605 383.783 382.158 379.1142 378.6696 377.7739 377.712 377.4198 376.243 377.7261 377.9774 378.6165 379.825 381.6915 383.384 385.7434 388.3083 390.2445 391.812 394.1485 395.4707 396.5693 397.2748 398.252 399.511 401.2672 403.3655 405.2595 407.027 409.941 412.157 414.4038 417.095 419.49 422.1937 424.65 427.185 430.196 432.385 434.3405 436.0014 437.5252 439.0457 440.7227 441.4612 442.0398 442.7156 443.6073 444.2479 445.1 446.4205 447.9778 449.865 451.1593 452.3224 453.808 455.3201 456.2896 457.254 458.3655 459.2986 460.4268 461.605 462.4048 463.466 464.7718 465.5626 466.659 467.9907 467.6162 468.0822 468.9502 469.7573 470.1129 470.4543 471.3643 472.5364 472.888 473.6357 474.7047 475.7436 476.3188 476.748 476.6097 477.9037 478.9436 479.6297 480.5044 481.2978 482.4433 483.5896 484.6795 485.4709 486.0595 486.3204 487.2818 487.9044 488.2494 488.3493 489.5952 490.4455 491.0202 491.2996 491.521 492.0757 492.5072 493.2052 494.0237 495.0556 495.805 497.1996 497.7242 497.7435 498.1133 498.9449 499.0402 499.3247 500.3196 500.6073 500.9839 501.0411 501.4049 501.8328 502.6702 502.7388 502.8641 503.7113 504.209 504.0022 502.8915 501.9742 501.9753 502.985 504.0847 505.8127 507.8887 508.5534 509.3793 510.341 511.2195 512.1028 513.2394 513.9243 515.1251 515.6953 515.5414 515.7162 516.4924 516.3717 516.3897 515.8784 514.9608 513.8664 512.7926 511.955 510.994 510.5325 509.4908 507.5832 506.093 504.3161 503.1952 502.153 500.9398 499.5011 497.6861 495.5391 493.1445 491.827 490.3591 489.2479 489.0508 488.7265 487.3853 485.6504 484.2049 483.2571 482.799 481.9459 480.8594 479.843 478.6758 477.4666 476.602 476.4968 476.6407 476.6855 476.4102 476.42 476.9916 477.9315 479.2506 480.6189 482.2358 484.1949 486.5688 488.0486 489.7226 491.7902 492.6197 494.0662 496.1129 496.782 496.2662 496.2832 496.4463 495.787 495.2369 496.0006 496.4838 496.7416 497.5489 497.2486 496.9404 497.3146 497.4097 496.8029 496.3693 496.1124 495.5769 494.5983 493.759 492.5911 492.4379 492.3858 491.36 489.476 487.7841 486.421
359.0793 359.0175 359.068 359.1256 359.1418 359.4152 359.7673 360.4516 361.266 362.3893 363.51 364.495 365.276 366.236 366.889 367.8735 368.21 368.7245 368.533 367.806 369.0135 369.654 369.9857 370.7326 370.2232 369.7378 369.342 370.0237 370.4425 370.0047 370.1253 369.753 369.3245 368.387 368.0295 367.9067 368.0567 367.63 367.7033 367.2378 367.1345 367.0103 366.3115 366.2693 365.9521 365.7804 365.414 364.6078 364.3344 363.9416 363.5753 363.35 363.2356 363.011 362.8253 362.9012 362.8825 362.997 363.0613 363.1483 363.3508 363.4705 363.69 363.701 363.588 364.638 365.0901 365.837 366.6202 366.101 367.1339 368.2441 369.4766 372.6166 373.9615 374.6844 375.286 376.367 377.527 378.292 379.2955 379.9969 382.1181 385.344 386.875 388.3234 389.288 389.9506 391.2771 392.4624 393.0137 393.3018 394.0088 394.0883 393.6342 393.2814 393.296 393.356 393.705 394.997 396.32 398.2427 398.1603 397.9523 398.4669 398.9002 399.2795 399.2632 397.9466 393.2462 389.0567 383.8041 381.2988 379.0312 377.6223 377.3308 377.048 376.4118 377.333 377.579 377.795 378.158 379.664 381.405 383.4776 385.6917 388.286 390.191 392.0117 394.4027 395.878 397.085 398.0678 398.9102 400.2655 402.447 404.4311 406.544 408.6746 411.0775 413.3126 416.2493 418.468 421.226 423.597 426.557 429.0538 431.981 433.9779 435.534 436.9031 438.0952 438.4421 441.324 442.6169 443.584 443.7972 444.4852 444.7793 445.3061 446.5163 447.6278 448.9417 450.8989 452.284 453.458 455.1324 456.138 457.1505 458.1677 459.2225 460.1104 461.272 461.1341 463.2842 464.5663 465.3766 466.4872 466.2645 467.302 468.042 468.7394 469.4713 469.9244 470.2636 471.1846 471.8377 472.5099 473.3036 474.2846 474.675 475.5323 476.343 476.2979 476.7906 478.52 479.3748 479.9056 480.8789 481.8303 482.7836 484.3374 485.2546 485.2979 485.5974 487.2651 488.0225 488.4767 488.934 489.6856 490.3333 490.271 490.975 491.4128 491.74 492.434 492.7881 493.573 494.5666 495.0573 495.943 497.3281 497.831 498.013 498.5008 498.9975 499.2821 500.0045 500.2412 499.8414 499.6223 500.0391 500.8421 501.6678 502.1852 502.0726 502.6958 502.849 503.1166 502.4489 501.0211 501.1045 501.7726 502.9844 504.4855 506.5671 508.1397 508.6844 509.3033 509.9806 511.0731 512.4306 513.4733 514.4691 515.1269 514.8419 514.7845 514.9515 515.4959 515.4328 515.5587 515.4465 514.799 513.4342 512.0919 511.7979 511.0551 510.2166 508.6198 506.1002 504.1692 502.2869 501.2089 499.462 498.2914 495.4656 492.9406 491.2777 489.8316 488.6279 487.9915 487.6359 487.0251 486.33 484.6072 483.2888 482.7382 481.7231 480.3395 479.0201 478.3315 477.2976 476.4705 476.0946 475.97 476.3581 476.657 476.937 476.9668 477.0909 477.7385 479.5127 481.2348 482.9448 484.9861 487.1514 488.5921 490.3855 492.4127 493.9088 494.1442 495.8469 496.6523 496.3005 496.0081 495.949 495.5853 495.3204 496.2748 496.4664 496.5558 497.33 497.8085 497.4253 497.8493 497.9857 496.9353 496.3065 496.2501 495.9796 494.8825 493.8563 492.9078 492.4463 492.3231 491.14 489.231 487.5641 486.3102
358.5587 358.6914 358.803 359.0506 359.089 359.143 359.3343 359.5857 359.9047 360.6446 361.3903 362.099 362.8609 363.3407 363.863 364.8326 365.6253 366.4835 365.8128 364.7136 364.8283 366.2274 366.5877 365.968 366.4965 365.8408 366.8372 367.187 367.5185 367.3094 367.488 367.4785 367.1185 366.531 366.1075 365.857 365.8923 365.685 365.2143 364.4359 364.1956 363.7424 363.6283 363.5132 363.2338 363.4587 363.3382 363.1982 362.9396 362.784 362.946 362.88 362.5323 362.3618 362.427 362.579 362.57 362.7062 362.8972 362.8708 363.0304 363.145 363.27 363.2036 363.332 363.899 364.6136 366.0449 367.3323 368.3336 368.3863 370.1128 371.7896 372.7886 373.8117 374.3213 374.711 375.629 376.969 377.6385 378.0725 380.1519 382.4395 384.9973 386.152 388.1834 388.9245 389.1133 390.6828 391.0157 391.91 392.7495 393.3117 393.612 393.1893 392.9685 393.074 392.7658 393.7125 394.5487 396.35 398.406 399.0685 398.3268 399.6144 401.342 401.1772 400.841 398.837 391.4605 388.5143 383.4195 379.9356 378.0739 377.6714 376.9694 375.7847 376.8328 377.091 377.354 377.3804 377.819 379.7077 381.4207 383.4152 385.6748 387.9525 389.7716 391.969 394.3073 395.9732 397.309 398.522 399.7285 401.1605 402.615 405.2065 407.847 410.0145 412.548 415.33 417.6595 419.742 422.553 425.344 427.791 431.088 433.0631 434.681 436.167 437.847 439.4004 439.4624 440.7344 442.941 444.052 444.205 445.1494 445.5485 445.8857 446.716 447.4277 448.6962 450.2751 452.523 453.7802 455.0299 455.974 457.2419 456.9778 458.8735 460.075 461.0363 462.1684 463.0093 464.1864 465.2698 466.0839 465.8352 466.8091 467.8608 468.4774 469.1808 469.9856 470.4798 470.7986 471.1984 471.7416 472.7437 473.4804 473.8795 474.9028 475.5417 476.1122 477.0616 478.3455 479.1145 479.946 480.3772 481.2603 482.1426 483.2009 484.6729 485.7464 486.2882 487.3932 488.2267 488.4399 489.0894 489.3048 489.7426 490.2123 490.5967 491.2533 491.8846 492.0096 492.6228 493.0347 493.6742 494.1006 494.8611 496.2235 497.3293 498.0092 498.0667 498.7658 499.0739 499.5985 499.636 499.26 498.5377 498.5277 499.4157 500.328 500.549 500.613 501.662 501.9391 501.8251 501.679 500.7448 500.4948 501.1478 502.5562 503.7932 504.7803 506.3384 507.7135 508.3997 509.2477 510.2468 511.0514 511.766 512.9608 513.8225 513.61 513.8204 513.9208 514.4271 515.0352 515.2439 515.5201 514.982 513.3065 511.7549 511.1628 510.3444 509.1106 507.8209 505.9439 503.4059 501.4765 499.6672 496.2525 494.1537 492.6659 490.1979 489.5547 488.8639 487.6425 486.8185 486.4903 485.6236 484.6364 483.2677 482.2416 481.5239 480.5225 479.6986 477.8375 476.8573 476.5774 476.048 476.1672 476.2886 476.3676 476.6849 476.739 477.061 477.3186 478.3043 479.521 481.5603 483.2685 485.0945 487.0944 489.2099 490.7718 492.3263 494.5059 495.4609 496.054 496.4033 496.1783 495.8315 495.3795 495.5808 495.4024 496.0195 496.6067 496.477 497.152 497.5024 497.2843 497.6126 497.6052 497.2796 496.6823 496.4697 496.2702 495.1805 494.2198 493.1689 492.4623 491.6176 490.1435 488.8708 487.6636 486.6291
