ncols         339
nrows         31
xllcorner     -50.1740077708
yllcorner     67.1241212226
cellsize      7.2999999999998e-005
NODATA_value  -9999
335.0235 335.1502 335.154 335.7174 336.1967 336.5847 336.8863 337.1265 337.2655 338.0159 338.8204 339.1701 339.4916 339.7875 339.7707 339.7385 339.6896 339.5963 339.471 339.2816 339.123 338.9566 338.6707 338.304 337.8771 337.1473 336.4296 335.7333 335.0505 334.3994 333.8339 333.4563 333.1558 332.7076 332.3336 332.0314 331.7303 331.3926 330.981 330.6802 330.3813 329.947 329.5793 329.2575 329.0323 328.7053 328.2577 327.6184 327.0477 326.6887 326.4299 326.2131 326.0063 325.4576 324.6445 323.4362 322.4161 321.6718 321.2394 320.731 319.8219 318.9752 318.1724 317.4832 316.9647 316.6075 316.3307 316.0807 315.8674 315.7252 315.5472 315.1671 315.1395 315.3091 315.1261 314.9056 314.6502 314.4687 314.351 314.3593 314.1337 313.8393 313.6638 313.5311 313.4295 313.2637 313.1058 312.9642 313.0287 313.1427 313.2689 313.2845 313.2403 313.1844 313.1641 313.1805 312.743 312.3247 312.0085 312.0109 312.0881 312.0862 311.9452 311.7218 311.6384 311.4831 311.2454 311.0341 310.917 311.0259 311.4028 311.7955 311.5948 311.5024 311.5001 311.3737 311.148 310.7842 310.649 310.3983 309.6212 309.2195 309.0213 308.9784 308.9325 308.8833 308.8061 308.728 308.6516 308.5801 308.5162 308.4739 308.3927 308.2828 308.1074 307.9633 307.8552 307.7403 307.7275 307.9527 307.6848 307.4285 308.4138 308.1231 306.8019 306.7158 306.6245 306.4789 306.3808 306.2773 306.1187 306.0413 305.9805 305.7045 305.4872 305.3191 305.0338 304.7892 304.6287 305.0285 305.4488 305.1087 304.7733 304.4142 303.2238 302.5451 302.4935 302.7426 303.1023 303.6158 303.9037 304.0751 304.0733 303.8598 303.4812 303.694 303.9496 304.2549 304.401 304.5245 304.6887 304.9526 305.2848 305.7927 306.262 306.6937 307.1273 307.5843 308.0833 308.6786 309.2535 309.6052 309.7966 309.8833 310.0499 310.2719 310.5596 310.8253 311.1499 311.6245 312.1196 312.6168 313.1049 313.6266 314.1734 314.3571 314.6232 315.0302 315.3826 315.8667 316.8219 317.4983 318.0235 318.5056 318.9643 319.3948 319.9995 320.6722 321.4364 322.0316 322.5812 323.1697 323.6518 324.0598 324.4493 324.8267 325.1914 325.5266 325.8387 326.1075 326.4832 326.8999 327.2497 327.7177 328.295 328.683 329.2197 330.0218 330.8117 331.67 332.7879 333.6328 334.3089 334.7793 335.2307 335.6568 336.0792 336.4899 336.8862 337.594 338.4854 339.7476 340.5244 340.959 341.7167 342.4344 343.1082 343.8431 344.5641 345.2063 345.7138 346.1981 346.929 347.4033 347.6608 347.4359 347.5051 348.0938 348.6811 349.1574 349.2403 349.4338 349.6978 350.0404 350.8531 352.1729 352.0168 351.6635 351.2665 350.7976 350.3735 350.2935 350.2557 350.243 350.3418 350.0667 349.3043 349.5477 350.0053 350.5867 350.6455 350.4413 350.0858 349.9147 349.8728 349.4464 349.5094 350.3922 350.4041 349.9066 348.4783 348.2865 348.82 349.6316 349.8369 349.4038 349.2384 349.2583 349.6507 349.3942 348.8181 347.7928 346.6336 345.3799 343.7041 342.0028 340.27 338.7016 337.2836 336.1987 335.205 334.2727 333.4987 332.4441 331.1389 330.1353 329.3376 328.8625 328.5271 328.2185 327.8766 327.2841 326.5287 325.5592 324.5299 323.4411 322.3423 321.3494 320.5953
336.0865 336.4807 336.5876 337.0753 337.5274 337.958 338.3883 338.8453 339.3427 339.8046 340.2376 340.589 340.7331 340.7584 340.6567 340.5189 340.3452 340.2117 340.0315 339.76 339.6087 339.4641 339.198 338.8964 338.5641 338.0106 337.4249 336.8009 336.2022 335.5709 334.8547 334.2711 333.7292 333.1075 332.5316 331.9912 331.732 331.5069 331.3305 330.8239 330.2859 329.8871 329.5262 329.1876 328.8887 328.54 328.1418 327.7319 327.3235 326.9212 326.5635 326.2062 325.7536 325.2197 324.6371 323.7887 322.9008 321.9666 321.4398 320.9127 320.225 319.5937 318.978 318.3256 317.6434 316.9411 316.8437 316.7499 316.6245 316.2553 315.8858 315.6923 315.692 315.7667 315.5398 315.1036 314.4414 314.3543 314.3048 314.2252 314.1553 314.0948 314.0622 314.0105 313.9429 313.6321 313.399 313.2607 313.1893 313.1311 313.0631 313.039 313.0326 313.0236 312.9474 312.8099 312.6091 312.3929 312.156 312.1536 312.1758 312.0949 311.9616 311.7967 311.5871 311.4465 311.3797 311.704 311.9723 312.0465 311.833 311.5979 311.7084 311.6447 311.4577 311.3837 311.2676 311.0953 310.6315 310.1327 309.6855 309.403 309.205 309.1025 309.0486 309.0351 308.9969 308.9153 308.7669 308.7045 308.6454 308.5295 308.4485 308.3834 308.2654 308.1433 308.0197 307.9387 307.9075 307.9845 307.7975 307.5661 307.6584 307.4987 307.1471 306.9823 306.8845 306.8705 306.725 306.8124 307.5672 307.5827 307.2876 306.9608 306.6032 306.2312 305.8335 305.6184 305.7191 305.3872 304.9008 304.2687 303.9113 303.7014 303.3482 303.0789 302.9224 302.4001 301.982 301.8596 301.8092 301.8081 301.9412 301.9948 301.9867 302.0369 302.1738 302.4261 302.4948 302.5601 302.7105 302.8468 302.9858 303.1733 303.5364 304.0556 304.7167 305.3542 305.9434 306.7219 307.4986 308.0969 308.5329 308.8726 309.1541 309.4159 309.6607 309.8006 309.8943 309.9255 309.9742 310.0711 310.3788 310.8016 311.3101 311.62 311.9593 312.3488 312.526 312.7295 313.1215 313.7209 314.4166 315.127 315.844 316.5666 317.1203 317.6506 318.1623 318.6628 319.2571 320.2084 320.9367 321.5151 321.8823 322.3497 322.9351 323.2892 323.6045 323.9001 324.2045 324.5114 324.8194 325.0041 325.0979 325.2504 325.395 325.5332 325.7441 326.0687 326.6577 327.1307 327.5763 328.2263 328.8741 329.523 330.4384 331.3665 332.2899 332.8621 333.3863 334.0841 334.8044 335.5395 336.2998 336.9738 337.5453 338.2544 338.9973 339.7871 340.0812 340.2075 340.3999 340.576 340.7304 341.0528 341.5433 342.2797 342.9042 343.4333 343.7472 344.0879 344.4214 344.6141 344.9013 345.2833 346.6542 347.4201 347.0115 346.5574 346.1907 346.2277 345.5665 344.5377 344.6698 344.9063 345.2604 345.7346 346.2347 346.7557 346.8041 346.6309 346.241 346.0706 346.0749 346.3537 346.5642 346.6735 346.7469 346.6278 345.9556 346.0769 346.4388 345.1917 344.8359 345.3262 345.0327 344.7656 344.6532 344.4444 344.0375 342.9687 341.8807 340.7761 339.5116 338.3308 337.2449 336.1402 335.0044 333.7949 332.6215 331.471 330.4022 329.4834 328.6839 328.1585 327.7029 327.3445 326.836 326.3192 325.8703 325.3135 324.7072 324.1475 323.2909 322.1466 321.3355 320.5892 319.9102
337.3768 337.9095 338.4307 339.0229 339.608 340.1929 340.3716 340.6179 340.9671 341.1489 341.2683 341.3127 341.2466 341.1338 341.0401 340.9451 340.8443 340.7346 340.5934 340.3992 340.2612 340.097 339.7861 339.4221 339.0189 338.4274 337.8603 337.3249 336.7006 336.0108 335.2109 334.4781 333.7723 333.0792 332.5774 332.2086 332.157 331.9618 331.5687 331.1385 330.7006 330.2571 329.8293 329.4198 329.0919 328.7784 328.4783 328.0794 327.6284 327.0978 326.5912 326.0891 325.5764 325.0886 324.6052 323.9525 323.437 323.0656 322.4883 321.7919 320.8929 320.3057 319.9299 320.0751 319.8679 319.4042 318.928 318.5693 318.3663 318.0616 317.6999 317.2147 317.0512 316.9702 316.3289 315.7991 315.3705 315.1425 314.8617 314.4706 314.1191 313.8761 313.9872 314.0232 314.0013 313.7388 313.6725 313.8235 313.817 313.7216 313.4871 313.4364 313.4337 313.3389 313.0696 312.6802 312.5811 312.3838 312.0535 311.9696 311.9587 312.0132 311.8849 311.6847 311.5815 311.5098 311.4654 311.4333 311.4172 311.4213 311.3622 311.2591 311.077 310.9923 310.9768 311.161 311.3192 311.451 311.3648 311.2557 311.15 311.0834 310.9512 310.3578 309.7984 309.2823 309.1192 309.0008 308.9396 308.8871 308.8439 308.8232 308.841 308.8715 308.8599 308.833 308.7933 308.6337 308.4644 308.291 308.2139 308.1705 308.1493 308.1441 308.1512 308.2717 308.091 307.5853 307.7864 308.0656 308.3706 308.0976 307.6129 307.1786 306.7244 306.2561 305.9022 305.6473 305.5342 305.0728 304.5185 303.9079 303.4722 303.1459 303.0978 302.9975 302.8488 302.3489 301.9886 301.9279 301.8695 301.7328 301.2811 301.0219 300.881 300.7888 300.759 300.7947 300.7705 300.8008 300.9794 301.1152 301.2325 301.3397 301.6451 302.1045 302.6501 303.2349 303.8702 304.3122 304.8412 305.7597 306.4521 307.0311 307.5854 308.0402 308.4005 308.7074 308.9236 308.9786 309.1753 309.4964 310.1711 309.7384 308.6775 308.6365 308.716 308.9276 309.3286 309.7648 310.2272 310.7996 311.4019 311.9157 312.552 313.2816 313.9625 314.6452 315.3274 315.6921 316.1082 316.8859 317.795 318.7527 319.516 320.1195 320.5698 320.937 321.2462 321.4573 321.7779 322.1195 322.4129 322.6722 322.9016 322.9702 323.285 323.8795 323.9127 323.6755 322.9905 323.0474 323.4146 323.931 324.3176 324.599 325.1342 325.7578 326.4849 327.1598 327.9273 328.9924 329.9774 330.9019 331.5784 332.2834 333.0178 333.3395 333.7955 334.563 334.8077 334.9239 335.1859 335.5496 335.9793 336.1428 336.4266 336.8623 337.3208 337.8374 338.4743 339.0011 339.4747 339.9071 340.2715 340.5875 341.4711 341.8028 341.284 340.9451 340.7281 340.7722 340.0992 339.1328 339.3279 339.519 339.6989 340.4402 341.3732 342.5615 342.8213 342.5262 341.0469 340.6541 340.9982 341.6627 342.0175 341.9685 341.9621 341.9265 341.7939 341.7443 341.7393 341.7883 341.2671 340.276 340.2199 340.1017 339.8237 339.1766 338.4509 337.7277 336.5976 335.3038 334.6027 334.1526 333.9582 333.472 332.5863 330.9895 329.8268 328.8863 328.3264 327.8093 327.3222 327.0122 326.6479 326.2194 325.6479 325.0259 324.3367 323.6288 322.8983 322.0618 321.2232 320.3769 319.5713 318.9095 318.4761
339.557 340.0401 340.5533 341.2837 341.8518 342.3154 342.4867 342.5443 342.4687 342.4228 342.3462 342.1945 342.0947 342.0144 341.9326 341.7518 341.4965 341.4428 341.3217 341.1009 340.8801 340.6208 340.2407 339.6628 338.9995 338.4329 337.8349 337.2076 336.5322 335.8487 335.1528 334.3955 333.7215 333.4601 333.2509 333.0778 332.9242 332.6512 332.2415 331.7702 331.3246 330.9553 330.533 330.0893 329.6407 329.2573 328.9225 328.6542 328.3297 327.9241 327.3998 326.8558 326.3267 325.7982 325.2524 324.5288 324.0242 323.7315 323.4543 323.0164 322.2892 321.7917 321.4537 321.5085 321.3968 321.1755 320.8176 320.599 320.5496 320.0795 319.5367 318.9719 318.8116 318.7737 318.5487 318.3136 318.0726 317.8623 317.4922 316.8806 316.4458 316.0736 315.7798 315.5622 315.3778 315.1181 314.8773 314.6553 314.7458 314.7457 314.518 314.2648 314.1005 314.3302 314.4263 314.4256 314.047 313.7121 313.4362 313.1023 312.8033 312.6055 312.6202 312.689 312.5878 312.5124 312.4642 312.2768 312.047 311.7463 311.6303 311.5544 311.4911 311.5352 311.6227 311.568 311.4484 311.2757 311.258 311.0143 310.3007 310.0106 309.8689 309.8102 309.761 309.7168 309.6152 309.544 309.5117 309.4902 309.4933 309.5681 309.5928 309.6005 309.6435 309.6024 309.4923 309.3392 309.2374 309.2183 309.1367 309.0524 309.0034 308.9935 308.984 308.7262 309.0493 309.9692 309.9278 309.6513 309.0748 308.5484 308.0868 307.8326 307.3028 306.6009 306.0561 305.6226 305.3249 304.8297 304.2462 303.5141 302.9337 302.4846 302.4646 302.5343 302.6727 302.3293 301.8472 301.1786 300.7774 300.5119 300.4759 300.4759 300.478 300.2386 300.0635 299.9592 299.4225 299.0444 299.0322 299.1852 299.3882 299.588 299.7728 299.9547 300.2863 300.5875 300.8572 301.3427 301.8973 302.5451 303.2983 304.0647 304.6604 305.1225 305.4711 305.729 305.972 306.1978 306.2081 306.1981 306.2883 306.7363 307.3334 307.3194 306.9492 306.1984 306.2531 306.4733 306.8563 307.347 307.8459 308.2364 308.7831 309.433 310.3867 311.2775 312.0774 312.4278 312.7705 313.2794 313.9831 314.8147 315.9063 316.8713 317.7282 318.2667 318.71 319.0196 319.1075 319.188 319.4294 319.611 319.7595 319.8507 320.0399 320.3292 320.8129 320.9705 320.4 321.3796 322.3866 320.961 320.1256 319.7469 319.975 320.3299 320.8523 321.4976 322.1414 322.7228 323.5102 324.3781 325.1369 326.0684 327.1303 327.5894 328.254 329.3007 329.8466 330.289 330.7966 330.9534 330.9491 331.4359 331.6591 331.5909 331.5361 331.5981 331.8963 332.3495 332.7234 332.4494 332.4329 332.5874 332.6908 332.8223 332.9529 332.9026 332.9583 333.3866 333.5587 333.6649 334.1263 334.5031 334.8139 334.9774 335.271 335.7996 336.2772 336.7262 337.141 337.4213 337.6667 338.4833 338.5439 337.8204 338.1963 338.3889 337.9733 337.5449 337.1666 337.0531 336.7877 336.4017 335.7351 335.281 335.1177 334.461 333.6883 332.859 332.0471 331.2686 330.7468 330.2802 329.8635 329.4951 329.1246 328.7447 328.3258 327.8528 327.2184 326.7749 326.4471 326.1192 325.627 324.9626 324.4111 323.8787 323.36 322.2908 321.0807 320.156 319.553 319.1776 318.6745 317.9902 317.0471
341.3817 342.1518 342.7736 342.955 343.2451 343.5609 343.6118 343.6776 343.757 343.6971 343.6028 343.4614 343.2763 343.0956 342.9886 342.8092 342.5815 342.3462 342.1105 341.8716 341.4553 341.0399 340.6915 340.1716 339.5884 339.0568 338.3521 337.51 336.634 335.8447 335.1904 334.7745 334.47 334.3582 334.1438 333.8843 333.7383 333.5346 333.2755 332.87 332.4374 331.9801 331.4504 330.9117 330.44 329.9248 329.3857 329.0329 328.7225 328.4669 328.1307 327.7661 327.3668 326.8385 326.25 325.6215 325.2786 325.1656 324.7752 324.2939 323.6866 323.1326 322.7524 322.9077 322.8692 322.7044 322.2927 322.0731 322.0501 321.774 321.4984 321.2703 321.0075 320.7055 320.2763 320.0135 319.866 319.6903 319.3902 318.9324 318.641 318.3278 317.8838 317.4901 317.1581 317.0966 316.9156 316.6368 316.7432 316.6526 316.2104 315.9355 315.7588 315.7714 315.7799 315.7651 315.4069 315.0035 314.5573 314.211 313.9478 313.8319 313.791 313.7701 313.7209 313.5992 313.4153 312.8738 312.463 312.2226 312.1703 312.1782 312.2528 312.2202 312.073 311.411 311.1372 311.1773 311.08 310.9896 310.9241 310.6719 310.432 310.3826 310.3024 310.2204 310.3544 310.4072 310.3762 310.4013 310.38 310.2415 310.2234 310.2273 310.1366 309.9829 309.788 309.6938 309.5997 309.5048 309.3802 309.4153 309.882 309.4484 308.713 308.5885 308.6013 308.726 308.4003 308.3634 308.8239 308.5612 308.1127 307.6668 307.28 306.9132 306.3218 305.7743 305.28 304.9735 304.6124 304.1026 303.5162 302.8877 302.2096 301.7855 301.5422 301.3018 300.8928 300.2501 299.9341 299.6689 299.378 299.1625 299.017 299.1369 299.1246 298.9966 298.9028 298.8674 298.9349 298.5953 298.1904 298.0038 298.0872 298.3128 298.3603 298.4371 298.5472 298.6488 298.903 299.4788 300.0984 300.7342 301.3602 301.7555 301.9771 301.9791 301.9395 301.8383 301.6624 301.5553 301.6884 302.0233 302.4347 302.751 303.0357 303.2842 303.4337 303.5177 303.502 303.8951 304.4609 305.2678 306.0035 306.6852 307.2 307.7889 308.4632 309.3347 310.1186 310.655 311.1281 311.6177 312.3687 313.092 313.7952 314.6245 315.347 315.9235 316.3635 316.7253 316.9524 317.0172 317.001 316.9428 316.9896 317.1341 317.2218 317.2054 317.0194 317.2119 317.4529 317.449 317.801 318.2214 316.6852 315.9567 316.1126 316.4923 316.816 316.9559 317.1757 317.4375 317.7607 318.4349 319.3886 319.8512 320.5075 321.4366 322.0706 322.7931 323.9499 324.5062 324.7813 325.1119 325.3504 325.5078 325.916 326.3197 326.6847 326.6738 326.5603 326.4498 327.2468 328.4446 327.0817 326.4402 326.6007 326.7827 326.9455 327.0644 327.4365 327.8858 328.2478 328.6614 329.1242 329.6428 330.1588 330.6847 331.2574 331.8216 332.3017 332.6746 332.9823 333.1108 333.8755 335.238 334.9891 334.4943 333.7499 333.4228 333.219 333.006 332.5708 332.0082 331.5876 331.1256 330.6111 330.2336 329.8703 329.4984 328.7785 328.0488 328.0784 328.3667 328.8481 328.7111 328.4336 327.9839 327.6584 327.2541 326.5892 326.0753 325.6526 325.3701 324.8181 324.0081 322.9457 321.9276 321.0183 320.1579 319.3426 318.6355 318.1075 317.6825 316.8167 315.9182 314.9831
343.7498 344.0742 344.3883 344.6935 344.8238 344.8678 344.859 344.7715 344.6197 344.463 344.3439 344.29 344.1292 343.9298 343.6971 343.4309 343.1564 343.0057 342.7469 342.3732 341.893 341.4512 341.1096 340.7575 340.3608 339.7596 339.0358 338.2263 337.2415 336.4543 335.9311 335.6224 335.4016 335.329 335.0427 334.6843 334.5217 334.2928 334.0023 333.7155 333.3817 332.967 332.4069 331.8035 331.1818 330.6049 330.0569 329.5685 329.1182 328.7112 328.4144 328.1324 327.8494 327.4753 327.0368 326.4331 325.7925 325.1291 325.7133 325.8938 325.4976 325.2372 324.9247 324.3908 324.1833 324.1204 324.0325 323.9129 323.7712 323.5258 323.2145 322.8046 322.8336 322.8585 322.4504 321.9078 321.3154 321.1743 320.9382 320.5944 320.2103 319.9447 319.9411 319.7503 319.4909 319.2394 319.0367 318.8627 318.3363 317.8859 317.5381 317.3341 317.1365 316.8916 316.5445 316.1787 316.0609 315.8759 315.6252 315.3672 315.1736 315.0963 314.9829 314.8305 314.5639 314.3673 314.2253 314.1898 314.0223 313.7063 313.1775 312.7649 312.6375 312.2934 311.9156 311.8547 311.8624 311.9176 311.9331 312.0577 312.3416 311.8274 311.2672 311.067 310.9843 310.9522 310.876 310.8471 310.8608 310.825 310.7817 310.7286 311.2165 311.5476 310.5965 310.1725 310.0745 309.9381 310.109 310.6432 309.8767 309.4386 310.1544 309.6194 308.7785 308.8166 309.0722 309.5211 309.342 309.1573 308.9725 308.7996 308.5379 307.9943 307.5368 307.1213 306.7078 306.4062 306.2079 305.6259 305.0963 304.7217 304.1107 303.4427 302.8532 302.0695 301.1678 300.3291 299.7235 299.388 299.6269 299.6954 299.1766 298.8591 298.6753 298.8064 298.6861 298.3722 298.253 298.1187 297.9562 297.6931 297.5841 297.9673 298.2321 298.3518 297.5679 297.0986 296.9224 296.8339 296.8322 296.9824 297.2347 297.418 297.1955 297.3824 297.8014 297.7428 297.7048 297.6925 297.4254 297.1727 297.0256 297.3146 297.7568 298.0847 298.4588 298.8745 299.5993 300.2243 300.6985 301.2857 301.8989 302.5196 303.1784 303.8768 304.7612 305.6359 306.502 307.209 307.9088 308.6133 309.4236 310.2092 310.7422 311.2292 311.6877 312.0734 312.6377 313.4088 314.0529 314.5554 314.7769 314.9669 315.1048 315.0245 315.4906 316.3902 316.5583 316.4846 316.0703 315.2974 314.6117 314.4256 314.1985 313.976 314.0886 313.8528 313.259 312.5451 312.051 311.946 312.1329 312.4901 313.1848 313.5909 313.8029 314.0727 314.3394 314.6002 315.0549 315.5379 316.0182 316.571 317.1523 317.7943 318.2795 318.6456 318.8412 319.1113 319.4987 319.8436 320.1774 320.5066 320.6379 320.6705 320.8135 321.5346 322.8505 321.7595 320.9865 321.2798 321.5986 321.9555 322.4436 322.9328 323.4206 323.7381 324.2595 325.0504 325.6601 326.1264 326.2971 326.8792 327.5845 327.935 327.9312 327.6465 329.0345 329.7547 329.3998 329.1804 329.0061 328.8884 328.4685 327.8878 327.3081 326.98 326.902 326.9255 327.0364 327.3029 327.2678 327.0109 326.2061 326.4612 327.3678 326.3038 325.5811 325.2493 325.6187 326.1459 326.7578 326.3647 325.5988 325.0975 324.1431 322.8195 321.5938 320.5136 319.6587 318.7215 317.9379 317.7436 317.3388 316.8 316.0188 315.2657 314.5363
345.2521 345.2451 345.2083 345.1835 345.2681 345.3823 345.4278 345.3735 345.2419 345.0553 344.9051 344.8091 344.6407 344.4671 344.3232 344.1488 343.9642 343.8065 343.5684 343.2551 342.6936 342.0553 341.3146 340.8996 340.4958 339.765 338.9216 338.0239 337.5125 337.2637 337.3242 336.9905 336.6793 336.5271 336.1717 335.7349 335.2794 334.954 334.7273 334.4641 334.1464 333.7516 333.3181 332.8694 332.4031 331.9628 331.5351 331.1059 330.6743 330.2393 329.7533 329.2524 328.7346 328.2431 327.7746 327.36 326.8332 326.2399 325.7827 325.5421 325.5604 325.5616 325.5366 325.4682 325.3676 325.287 325.4187 325.2812 324.9343 324.6378 324.2551 323.7472 323.3836 323.1309 323.1081 322.9583 322.7121 322.1617 321.8073 321.6475 321.3107 321.1625 321.3875 321.0403 320.618 320.54 320.344 320.0715 319.6846 319.3202 318.9641 318.4641 318.091 318.0423 317.7338 317.3665 317.2603 317.1895 317.1482 316.9519 316.717 316.436 316.2846 316.1575 316.0257 315.8408 315.6135 315.2246 314.9513 314.7968 314.6144 314.4437 314.2946 313.6882 313.0498 312.9373 312.7454 312.5086 312.2448 312.0626 311.9704 311.8427 311.7007 311.5326 311.412 311.3036 311.148 311.0621 311.0346 310.9789 310.9006 310.7873 310.7363 310.6712 310.5154 310.4041 310.3152 310.216 310.0512 309.8238 309.6811 309.5337 309.3767 310.0823 310.6276 309.4432 308.8488 308.6398 309.1948 309.4084 309.2123 308.9849 308.6889 308.2409 307.8463 307.4533 306.9259 306.596 306.428 305.9329 305.0852 303.7087 303.3054 303.1511 303.0778 302.4925 301.6468 300.8641 300.1938 299.6439 298.9539 298.232 297.4626 297.2791 297.3137 297.5387 297.4695 297.2116 297.2087 297.1195 296.9275 296.5685 296.1641 295.7216 295.3749 295.1755 295.7242 296.4456 297.2972 297.1964 297.0936 297.0592 296.8115 296.5006 296.1804 295.9237 295.6995 295.3787 295.2957 295.4378 295.051 294.6976 294.4948 294.541 294.7083 295.0608 295.539 296.1008 296.6684 297.2256 297.7703 298.4226 299.2139 300.3186 301.1426 301.855 302.5964 303.4128 304.2936 305.0015 305.6544 306.2284 306.9062 307.6469 308.4937 309.1058 309.5811 310.0194 310.3476 310.5658 310.7967 310.9482 310.9225 310.9812 311.0309 310.8972 310.9187 311.0489 311.1592 311.1516 311.0451 311.7418 312.2733 312.035 311.662 311.256 311.0632 310.8381 310.5829 310.6581 310.3184 309.2559 308.9904 308.9705 309.1081 309.4124 309.7706 309.5686 309.5126 309.6086 309.8149 310.0694 310.3937 310.4548 310.5531 311.1987 311.6282 311.899 311.8062 311.7771 311.8344 312.3482 312.8005 312.8906 313.3765 313.8649 313.0779 313.0309 313.6075 313.9265 314.2655 314.6511 315.0246 315.5156 316.4366 317.2482 317.9916 318.6954 319.3065 319.8118 320.1394 320.4464 320.7512 321.2499 321.7232 321.7541 321.8662 322.0359 322.1286 322.6289 323.643 323.4155 323.2397 323.6749 323.5995 323.3221 323.1784 323.1655 323.2724 322.4905 321.85 321.4652 321.526 321.7238 322.007 322.4678 323.0027 323.0507 323.548 324.5525 324.1815 323.9922 324.6227 324.4392 323.8937 323.0038 322.0375 321.0139 319.8753 319.0255 318.589 318.241 317.9266 317.666 317.0244 316.1567 314.792 314.0467 313.864
345.8559 345.7698 345.6799 345.6493 345.6672 345.7094 345.7869 345.8145 345.8057 345.6422 345.5004 345.3848 345.2494 345.0988 344.9186 344.7176 344.5051 344.293 344.0121 343.6707 343.1921 342.6419 341.9862 341.2305 340.4229 339.513 338.894 338.4436 338.1888 338.005 337.8945 337.6767 337.4373 337.1767 337.0558 336.9268 336.5513 336.1508 335.7329 335.2776 334.8199 334.3624 334.0263 333.7 333.3435 332.9488 332.5242 331.9991 331.5464 331.1575 330.8198 330.3341 329.6098 329.0064 328.4947 328.189 327.8899 327.58 327.0844 326.6158 326.1791 325.6732 325.259 325.0485 325.5552 326.2143 326.4207 326.3123 325.9985 325.6809 325.2144 324.5648 324.2829 324.0345 323.7176 323.5258 323.3658 323.0497 322.8048 322.6171 322.4995 322.3905 322.3008 322.2854 322.2614 322.1457 321.7417 321.1691 320.4651 319.8489 319.3289 318.89 318.4842 318.1414 317.9055 317.6842 317.3906 317.2581 317.2315 317.0036 316.8366 316.7414 316.7591 316.9026 317.3197 317.1353 316.7246 316.5323 316.2814 315.9805 315.621 315.2245 314.775 314.6896 314.7724 315.1241 315.1384 314.933 314.3162 313.9408 313.8248 312.9388 312.2412 312.0758 312.4672 312.7892 311.902 311.5782 311.6334 311.4216 311.2246 311.0463 310.901 310.7788 310.6968 310.6292 310.5697 310.5241 310.4431 310.3329 310.1664 310.0373 309.9739 310.2047 310.3138 309.6448 309.7036 310.1352 310.0365 309.8491 309.5558 309.1757 308.6919 308.0274 307.7784 307.609 307.1117 306.594 306.0692 305.968 305.5949 304.8411 304.136 303.5499 303.2921 302.8334 302.2865 301.7852 301.2832 300.7817 299.8184 298.7725 297.6247 296.4782 295.4767 295.0009 294.7486 294.6548 295.1397 295.5448 295.8607 295.1726 294.5038 294.1273 294.0862 294.2155 294.6321 294.9781 295.2761 295.3449 295.3842 295.3869 295.4251 295.4563 295.4532 295.0278 294.4411 294.1378 294.0424 294.1378 294.1152 294.1322 294.2259 293.8743 293.5005 293.5327 293.6988 293.9885 294.5611 295.0887 295.5632 296.0405 296.6375 297.4912 298.4713 299.4676 300.3491 301.207 302.049 302.7764 303.4725 304.1262 304.4542 304.7933 305.3398 305.6482 305.8425 305.948 305.8888 305.6763 305.9742 306.3124 306.6781 307.1957 307.6906 307.9658 308.4445 309.0389 309.6623 309.7488 309.188 309.692 310.2258 310.5029 310.2762 309.8346 309.1956 308.7585 308.4681 308.1623 307.9426 307.8517 307.9468 307.9213 307.445 307.1365 306.9405 307.0121 307.1521 307.3552 307.8771 307.9818 307.3534 308.5542 309.6282 308.1787 308.0535 308.7464 309.3593 309.0631 307.7358 308.5258 308.9891 308.1126 307.8638 307.9055 308.3195 308.2205 307.7574 308.5358 308.7831 308.2835 308.515 309.3329 311.4204 311.8928 311.7075 312.6002 313.2127 313.5708 314.1863 314.8128 315.4352 315.8157 316.1429 316.505 317.6021 319.0739 318.776 318.6171 318.6292 317.4212 316.468 316.4945 316.9047 317.4286 317.6598 317.1627 316.0973 316.3245 316.7441 317.426 317.9138 318.314 318.5959 318.7921 318.9209 318.7868 319.2417 320.2551 321.1567 321.5592 321.0621 320.6086 320.1183 319.5082 318.8772 318.2409 318.0529 317.8883 317.7519 317.4502 317.084 316.6193 315.5614 314.34 313.511 313.1213 313.071
346.9193 346.8789 346.8382 346.8148 346.7709 346.7111 346.6064 346.5307 346.4801 346.4918 346.4595 346.3799 346.1429 345.8392 345.4286 345.2268 345.0896 344.8842 344.5575 344.1439 343.8011 343.2466 342.4077 341.6947 340.9353 339.9778 339.4294 339.0695 338.712 338.5055 338.437 338.0157 337.7369 337.7346 337.5352 337.3013 337.1424 336.8879 336.58 336.3123 335.9317 335.4232 335.0339 334.6488 334.2457 333.803 333.3409 332.8581 332.4296 332.0432 331.5696 330.9888 330.2593 329.6782 329.1539 328.7168 328.4169 328.1783 327.9294 327.629 327.2813 326.9372 326.5815 326.2072 325.9095 325.7156 325.8303 325.9875 326.1201 325.6116 325.2992 325.1877 324.9928 324.7992 324.6265 324.5025 324.4133 324.4089 324.5041 324.674 324.8626 324.8574 324.5814 324.3281 324.0349 323.6081 323.2347 322.8793 322.5051 322.1112 321.698 321.1054 320.524 319.9787 319.5492 319.1471 318.7279 318.5918 318.6159 318.4547 318.1901 317.8031 317.6054 317.3941 317.1024 316.8575 316.6102 316.2584 316.0528 315.9603 316.0166 315.9836 315.8043 315.6278 315.5128 315.5679 315.5396 315.4935 315.6504 315.558 315.2516 314.7906 314.3237 313.8545 313.9487 314.0404 313.4556 313.1154 312.9137 312.5013 312.1598 311.8882 311.5414 311.2524 311.106 310.9966 310.9111 310.871 310.7912 310.6811 310.6312 310.5467 310.4094 310.3105 310.3076 310.5584 310.9562 311.3474 310.8333 310.2909 309.7238 309.148 308.5139 307.7626 307.3509 307.0741 306.9492 306.7037 306.3797 305.9514 305.3367 304.5063 304.1986 303.9095 303.4906 302.8215 302.1357 301.9234 301.566 301.0991 300.949 300.3126 298.9832 297.8477 296.6637 295.2255 293.6783 292.226 292.0947 292.3548 292.9783 293.003 292.8024 292.287 292.1357 292.1541 292.4203 292.3259 292.0306 292.2295 292.3617 292.4126 292.4307 292.5351 292.8444 292.8502 292.6662 292.0811 291.8008 291.7513 291.7012 291.6918 291.7456 291.5905 291.7791 293.1119 293.787 293.9976 293.1573 292.7489 292.7464 293.0294 293.4668 294.1462 294.7303 295.2978 295.9288 296.7413 297.6589 298.4346 299.3285 300.3702 300.548 300.6765 300.9967 301.1069 301.1866 301.624 301.868 301.965 302.5348 303.2623 304.2187 304.4923 304.7326 305.3484 305.956 306.5475 307.0307 307.3628 307.5458 307.6375 307.9082 308.5189 308.913 309.0739 308.4653 308.0672 307.8049 307.6416 307.7304 308.0985 307.8118 307.5929 307.7512 307.2279 306.6136 307.3088 307.3709 306.9158 307.7472 308.4813 309.0108 307.9243 306.8615 307.1284 307.5064 307.8705 307.5612 307.564 307.85 307.9691 308.247 308.8258 309.1039 309.3064 309.6682 309.8266 309.8486 309.6997 309.5902 309.5056 308.8815 308.3669 308.3495 308.3211 308.3429 308.8695 309.5191 310.2537 310.4093 310.5781 310.7849 309.806 308.9555 309.3526 310.6251 312.1653 311.4247 310.9633 310.7723 310.5254 310.4164 310.6027 310.4272 310.2519 310.6037 310.6839 310.597 311.2732 311.399 310.8562 311.6566 312.5416 313.1104 313.3455 313.4562 313.6575 314.1053 314.7721 315.3067 316.0746 317.1767 317.2611 316.9797 316.1787 316.0898 316.2674 314.8177 314.4406 315.1383 315.1377 314.8905 314.2774 313.8629 313.5266 313.2892 313.3829 313.7048
348.4511 348.4406 348.3688 348.2068 348.04 347.8874 347.7827 347.6873 347.6061 347.6456 347.4787 347.1196 346.9471 346.7585 346.5185 346.0247 345.4863 345.0571 344.6899 344.3528 343.8692 343.3639 342.8246 342.0688 341.2954 340.5482 339.9257 339.4132 339.2551 339.0391 338.7802 338.4898 338.259 338.1191 337.9563 337.8121 337.7345 337.522 337.2407 336.9369 336.6052 336.2471 335.9585 335.6434 335.269 334.9653 334.6552 334.2359 333.7747 333.286 332.8062 332.3294 331.8574 331.3989 330.9374 330.4658 329.9815 329.5216 329.2309 328.9912 328.7832 328.3539 327.8762 327.3272 326.8739 326.4522 326.052 326.2573 326.7207 326.4477 326.3009 326.2533 326.0984 325.833 325.3984 325.2998 325.3917 325.9009 326.3298 326.6937 326.6366 326.4937 326.2465 325.9147 325.5403 325.1021 324.7163 324.338 323.8549 323.3289 322.7689 322.1475 321.5508 320.9951 320.756 320.5514 320.2301 319.9656 319.7163 319.2977 318.938 318.6367 318.4232 318.2004 317.9437 317.7613 317.6058 317.4534 317.2035 316.8954 316.7528 316.5034 316.1204 316.1336 316.1155 315.8665 315.6924 315.5499 315.4026 315.3143 315.2761 315.7321 315.9103 315.6487 315.5009 315.3124 314.9128 314.7064 314.5762 314.1427 313.7492 313.4038 313.435 313.3407 312.9614 312.0452 311.1649 311.1413 311.0728 310.9745 310.8584 310.746 310.6383 310.4141 310.5917 311.8015 311.9244 311.573 311.0269 310.399 309.7038 308.8264 308.1774 307.8903 307.597 307.2633 306.8016 306.2556 305.6898 305.4069 305.0483 304.6058 303.9951 303.484 303.1947 302.6538 302.0716 301.6716 301.3771 301.1407 300.5992 300.0429 299.4751 298.555 297.5759 296.6151 294.8958 292.8481 290.7171 289.5102 289.0776 289.8389 290.4105 290.6068 289.9538 289.2169 288.8711 288.636 288.4554 288.2211 288.1973 288.4017 288.2373 288.1573 288.3259 288.5779 288.7743 288.6176 288.4635 288.3179 288.4835 288.5917 288.6199 288.7012 288.7614 288.7609 289.3835 290.2193 290.5844 290.9039 291.1832 291.673 291.695 290.9349 291.1154 291.6091 292.3557 292.6798 292.7764 293.1082 293.7534 294.7241 294.9102 295.1516 295.6483 296.5963 297.5849 298.0041 298.7121 299.6295 300.4621 301.0801 301.4148 301.9088 302.4576 303.076 303.6723 304.2513 304.7909 306.0801 308.0052 306.2733 305.1982 305.4065 306.78 307.7586 306.452 306.0756 306.259 307.1984 307.6357 307.5835 307.2151 306.7694 306.2545 306.2155 306.3321 306.437 306.5579 306.6836 306.9021 307.022 307.0105 307.2349 307.4086 307.3404 308.1853 309.1715 308.1655 308.0072 308.6006 308.7902 308.8059 308.6078 309.0169 309.5273 309.8085 309.8492 309.7173 309.0079 308.8042 309.1573 309.1618 309.0169 308.6479 308.447 308.3289 308.2894 308.4602 308.7829 309.3223 309.7456 310.0081 309.9416 309.9606 310.3708 310.9717 311.5266 311.0644 310.6015 310.1445 310.3304 310.1671 309.3716 308.6871 308.2582 308.6437 309.0023 309.3174 309.2026 309.2099 309.3506 309.5188 309.3171 308.2972 308.7133 309.5811 310.0495 310.5467 311.0669 311.5341 311.9246 312.232 312.7549 313.1761 313.183 313.0475 312.8287 312.3801 312.511 313.2065 313.3076 313.3113 313.2015 312.6948 312.2902 312.6752 313.0653 313.4307
349.6833 349.5316 349.3255 349.0479 348.9702 348.8712 348.6374 348.3705 348.0976 347.8656 347.6659 347.4902 347.2655 346.8981 346.3081 345.8508 345.4214 344.9822 344.5908 344.2036 343.5638 342.9031 342.2254 341.5407 340.8822 340.2902 339.9002 339.6133 339.5043 339.3278 339.1077 338.9761 338.8666 338.785 338.5946 338.3849 338.165 338.0795 338.0297 337.8195 337.5535 337.2425 336.963 336.6534 336.2946 335.9483 335.6178 335.3329 335.007 334.6598 334.3534 334.1094 333.9348 333.514 332.9016 331.9499 331.3478 330.8617 330.3799 330.1229 330.0224 329.6509 329.167 328.5296 327.9649 327.5028 327.2674 326.995 326.6971 326.3336 325.8905 325.3799 325.3816 325.5191 325.8426 326.4348 327.0439 327.4673 327.597 327.5587 327.4716 327.3492 327.1882 327.7195 327.7325 326.57 325.7303 325.0304 324.4847 323.9413 323.3992 322.9321 322.4658 322.0014 321.7065 321.4556 321.2425 320.9788 320.6878 320.3535 320.0252 319.7032 319.4517 319.2161 319.0021 318.8719 318.776 318.7418 318.5784 318.3376 318.021 317.7127 317.4111 317.1763 316.9551 316.7451 316.5479 316.3722 316.287 316.1786 316.0555 316.2202 316.2842 316.1962 315.8399 315.5443 315.5416 315.3769 315.1118 314.6217 314.2347 313.9372 313.5711 313.3208 313.2667 312.9734 312.6406 312.4254 312.0006 311.4861 311.2508 311.1266 311.1163 310.9941 310.9189 310.9652 310.8091 310.7255 311.4073 311.353 310.7639 309.6756 308.6899 307.8571 307.4983 307.1903 306.7668 306.3805 306.0022 305.5459 305.1036 304.6792 304.2225 303.7071 303.0884 302.5904 302.0938 301.4881 300.961 300.4612 299.624 298.7616 297.8702 296.9223 296.1035 295.5801 294.6419 293.3314 290.8427 288.7518 286.9547 286.4977 286.4229 286.8635 287.082 287.003 286.1997 285.4989 284.8563 284.296 283.8011 283.3683 283.1309 283.1338 283.5228 283.843 284.0887 284.1325 284.0366 283.8722 283.9273 284.0557 284.266 284.717 285.2202 285.7701 286.3427 286.9541 287.7419 288.2955 288.6827 288.6827 288.6118 288.4413 288.5315 288.8955 289.9031 290.3427 290.5335 290.7557 291.4189 292.4843 292.7492 292.6209 291.9221 292.1977 292.8307 293.8436 294.1941 294.1787 294.4497 296.038 299.059 299.9527 300.9361 302.6746 303.6893 304.4021 304.877 305.6053 306.5277 306.5259 306.325 305.8438 306.2936 306.9014 307.4154 307.6114 307.6478 307.6461 307.644 307.6402 307.5078 307.4237 307.4469 307.4045 307.4361 307.7658 308.1132 308.4552 308.316 308.0085 307.4943 307.8447 308.1235 307.9269 307.5648 307.2375 307.3383 307.3493 307.2941 307.6221 307.7737 307.6636 308.6733 309.6102 309.6763 309.5231 309.2422 308.7091 308.5674 308.8002 309.0306 309.0442 308.6699 308.3433 308.0849 308.051 308.1376 308.2994 308.4746 308.6651 308.8775 309.0489 309.2495 309.5319 310.0735 310.5883 310.3894 310.0921 309.7347 310.1371 310.1852 309.7126 309.163 308.7739 308.9177 308.8839 308.7681 308.6612 308.6399 308.6992 309.0709 309.3199 309.3072 309.6583 310.0631 310.2927 310.4542 310.5941 311.1783 311.7474 312.2841 312.1816 311.892 311.363 310.9548 310.7546 311.5729 312.1108 312.4139 312.4818 312.4136 312.1557 312.1137 312.2487 312.796 312.4721 311.8204
350.4192 350.0942 349.8273 349.6264 349.4437 349.1862 348.7608 348.2576 347.868 348.2139 347.7878 346.7869 346.4579 346.1752 345.9557 346.167 346.0751 344.8807 344.1778 343.7003 343.1439 342.4926 341.7633 341.0499 340.4178 339.9294 339.6377 339.4368 339.3874 339.4516 339.578 339.6821 339.6723 339.5292 339.5267 339.4432 339.1524 338.8405 338.5292 338.2471 338.1561 338.1978 337.9696 337.653 337.2167 336.843 336.5038 336.2259 336.1351 336.1106 335.9323 335.5038 334.853 334.2867 333.6477 332.8704 332.5684 332.3263 331.841 331.4127 330.9984 330.2413 329.6613 329.2778 328.7115 328.2179 327.9396 327.7499 327.5583 327.1886 326.8059 326.4109 326.551 326.8343 327.3171 327.606 327.762 327.645 328.005 328.4363 327.6379 327.0898 326.7592 326.5445 326.3118 326.0279 325.6334 325.2144 324.8102 324.3931 323.9748 323.646 323.3237 323.0083 322.7799 322.5501 322.2939 322.0159 321.7365 321.5059 321.3063 321.1271 320.8627 320.6154 320.395 320.1501 319.966 319.9564 319.464 318.7944 318.4942 318.2183 317.9641 318.1056 318.0113 317.4822 317.2397 317.1445 317.3072 317.2831 317.1358 316.7527 316.5324 316.4857 317.2561 317.7245 317.2234 316.8322 316.4382 315.8141 315.2358 314.6948 314.4182 314.2135 314.1081 314.0532 313.9244 313.548 313.4409 313.4591 313.3889 313.3675 313.3953 312.6355 312.0874 312.0462 312.5286 312.9052 312.2633 311.7957 311.4351 310.9957 310.214 309.0252 307.9835 307.21 306.9978 306.6108 306.1458 305.6042 305.0665 304.5284 303.9207 303.3724 302.9125 302.5111 302.0579 301.4123 300.5365 299.5352 298.3568 297.1921 296.0398 295.1981 294.2892 293.2235 292.1095 290.813 288.8152 287.0814 285.5299 284.5202 283.7027 283.1234 282.7739 282.437 282.045 281.5875 281.1536 281.0271 280.6508 280.0834 279.4834 279.2179 279.4489 279.9019 280.4024 280.8971 281.2451 281.5143 281.783 282.0845 282.416 282.9186 283.6475 284.7694 285.8399 286.7255 286.9152 286.9439 286.8719 286.9048 286.6715 286.1224 285.8923 286.0511 287.0102 287.5533 287.8599 287.7453 287.9931 288.5444 288.6885 288.8344 289.001 289.103 289.2288 289.4809 291.1139 293.3741 294.5801 294.5164 293.188 295.603 298.065 299.9783 301.6876 303.1677 303.9756 304.7495 305.4963 306.3052 306.7102 306.6259 306.3918 306.2659 306.4702 306.9253 307.4318 307.5881 307.3935 306.9102 306.6447 306.4873 306.4892 307.2617 308.0155 308.1164 308.3068 308.5469 308.7148 308.6637 308.3999 308.7584 308.9697 308.817 308.8583 308.9351 308.8782 308.924 309.0245 308.9716 309.043 309.2608 308.4621 308.0939 309.0756 309.3726 309.2719 308.4124 308.3013 308.7847 308.7895 308.6796 308.4066 308.3093 308.309 308.4998 308.6426 308.7576 308.826 309.2367 309.9789 309.8452 309.632 309.4054 309.6656 310.1074 310.6507 310.1869 309.0906 309.1789 309.6268 310.4918 310.7993 310.8725 310.6058 310.1584 309.6917 309.6058 309.1565 308.4246 308.5551 308.9803 309.8089 309.8851 309.9045 310.337 310.7012 311.0478 311.5276 311.6464 311.3824 312.1346 312.7096 312.7238 312.6496 312.5771 312.6678 312.9498 313.3447 312.8623 312.4231 312.0889 312.0241 311.9346 311.6763 311.5825 311.6518
350.1994 349.9802 349.7328 349.4595 349.128 348.7736 348.3833 347.6912 346.9708 346.491 346.1547 345.9024 345.5366 345.1609 344.7748 344.4067 344.0726 343.8116 343.2803 342.7339 342.74 342.0004 340.6884 340.2505 339.7852 339.2582 339.4999 339.7305 339.457 339.5584 339.8201 339.7999 339.7734 339.7459 339.6423 339.5534 339.5063 339.4144 339.2963 339.1245 338.9266 338.7101 338.4511 338.1811 337.8967 337.4438 337.0306 336.7764 336.5941 336.4281 336.1874 335.7096 335.0435 334.3622 333.7773 333.3342 333.0265 332.6805 332.1287 331.3451 330.481 329.9817 329.5756 329.2605 328.8605 328.5072 328.253 328.0974 327.9538 327.7317 327.6215 327.5861 327.6538 328.0125 328.7368 329.0844 328.9885 327.9836 328.0337 328.3522 327.5648 327.0619 326.7936 326.4002 326.3361 326.7858 326.0516 325.3947 325.8702 325.4204 324.5352 324.3448 324.1482 323.9459 323.6964 323.4279 323.1331 322.9171 322.7328 322.5759 322.3475 322.0648 321.6229 321.1192 320.531 320.9427 321.0012 319.7783 319.2105 318.9185 318.6645 318.8734 319.4478 318.454 318.2441 319.2418 318.6118 317.7759 317.4344 317.8221 318.5146 318.476 317.9393 316.93 316.8401 316.8249 316.7984 317.2871 317.6837 316.9821 316.4483 316.0134 315.3107 314.7706 314.4284 314.2405 314.1216 314.104 313.9513 313.7574 313.6485 313.5517 313.463 313.3174 313.1103 312.8026 312.8541 312.852 312.3483 311.7753 311.1721 310.6297 309.8864 308.9335 308.0143 307.2562 306.8272 306.5185 306.2098 305.7448 305.1238 304.3983 303.746 303.1277 302.5464 301.9286 301.2656 300.4922 299.4422 298.2947 297.2993 296.3005 295.3011 294.2944 293.1469 291.7727 290.0627 288.2646 286.4084 284.6711 283.0755 282.5266 281.9263 281.2678 280.7435 280.3471 280.1834 279.984 279.7592 279.4783 279.4027 279.4582 279.3962 279.3365 279.2847 279.1906 279.1237 279.1238 279.4179 279.8203 280.0562 280.3398 280.6682 281.5161 282.6665 284.2667 285.5802 286.5974 286.8208 286.431 285.7258 285.2779 284.8057 284.2914 283.7414 283.6639 284.563 285.6738 286.7858 287.5984 287.9959 288.1168 288.2467 288.6774 289.5146 290.1652 290.4441 289.8584 290.3293 291.3947 293.4518 293.8803 292.9358 295.1704 297.3438 299.2372 299.5354 299.9482 301.9955 303.4977 304.6729 305.3974 306.3495 307.5224 307.8111 307.9046 307.7881 307.9224 308.1321 308.302 308.4419 308.5599 308.7814 308.872 308.8006 309.0855 309.4857 310.0379 309.8127 309.2787 308.9582 308.7729 308.6853 309.0513 309.3398 309.4417 308.9312 308.4398 308.5303 308.9342 309.4238 308.7408 308.7064 309.3363 308.7185 308.2334 308.277 308.3848 308.4964 308.4954 308.3188 308.0123 308.4552 308.563 308.2008 308.2895 308.5125 308.8911 309.5452 310.2664 310.4464 310.5836 310.6878 311.1023 311.311 311.149 311.2874 311.4316 311.3341 311.075 310.7068 310.2348 309.8772 309.6242 310.0815 310.8387 312.0351 311.1801 309.9391 310.5418 311.1646 311.8051 312.1972 312.5894 312.9755 313.2707 313.4829 313.5221 314.4274 315.6412 315.9728 315.911 315.508 315.028 314.7581 314.8328 314.9872 315.1246 315.1252 314.4272 313.3736 313.4139 313.8229 314.6479 313.7554 312.9858 312.9243 312.984 313.1161
350.1635 349.86 349.54 349.2083 348.6552 348.0232 347.2798 346.4745 345.7121 345.1541 344.8248 344.6075 344.1819 343.8199 343.5251 343.2351 342.9429 342.6466 342.1262 341.6051 341.4195 341.2604 341.1034 339.8949 339.0013 338.5317 338.9084 339.1393 338.6239 338.609 338.7971 338.9171 338.9676 338.9586 338.8908 338.8277 338.7809 338.754 338.6786 338.4222 338.326 338.3149 338.2221 338.0542 337.8042 337.6835 337.5653 337.4256 337.088 336.7439 336.7189 336.3242 335.6757 335.2038 334.6099 333.8647 333.1408 332.5554 332.2934 331.2333 329.9498 329.6119 329.2457 328.8492 328.5723 328.3471 328.1993 328.0702 327.976 327.9844 327.9325 327.8535 327.8358 327.8087 327.7719 328.6035 328.9507 328.1159 327.5559 327.1337 326.9232 326.667 326.3814 326.2152 326.0283 325.819 325.6264 325.4692 325.405 325.326 325.2264 325.0052 324.7992 324.6052 324.4406 324.2383 323.9718 323.5677 323.1667 322.8894 322.6538 322.4292 321.9817 321.5932 321.2732 320.9551 320.5702 320.0515 319.7094 319.4087 319.0073 318.6814 318.4074 318.0736 318.0025 318.2683 318.2075 318.15 318.1338 317.9012 317.5541 317.0135 316.7438 316.7007 316.6903 316.6623 316.6053 316.9608 317.3251 317.2903 317.296 317.2729 316.5938 316.0236 315.5648 315.0899 314.5597 313.922 313.7202 313.6952 313.7748 313.4972 312.9719 312.5404 312.2371 312.1047 312.0155 311.8606 311.5045 310.9876 310.4035 309.8664 309.2484 308.5491 307.8802 307.2407 306.6462 306.223 305.8477 305.4689 304.7984 303.9545 303.0938 302.4023 301.9033 301.0135 300.1271 299.3456 298.5412 297.6719 296.5285 295.4438 294.4078 292.8458 291.2358 289.567 287.6901 285.8172 284.0819 282.6324 281.3827 280.6737 280.1761 279.8674 279.5321 279.3216 279.3276 279.1763 279.0659 279.256 279.5348 279.8629 280.0754 279.9743 279.5298 279.1092 278.858 278.973 279.0775 279.1508 279.0792 279.1519 279.3249 280.1482 281.3501 283.0768 284.5848 285.6718 285.7089 285.2335 284.5092 283.7222 283.6602 284.2531 285.4866 286.4114 286.7849 287.9487 289.2423 290.2019 290.6485 290.7788 290.8394 290.9638 291.148 291.8143 292.4655 292.986 293.5083 294.1226 295.1998 296.8644 298.9645 299.9911 301.0044 301.9839 302.7114 303.2297 303.3644 303.9603 304.7603 305.7266 306.9169 308.3113 309.1127 309.8187 310.4297 310.8966 311.302 311.6289 312.1634 312.8095 312.9936 313.1278 313.205 313.0823 313.2129 313.9878 313.8313 313.3979 313.3285 312.9648 312.3701 311.8976 311.6237 311.5998 311.2965 311.0396 311.0753 311.1949 311.3137 311.0964 310.9738 310.9317 311.3256 311.2972 310.4615 310.7781 311.3025 311.2647 310.6291 309.6744 310.0401 310.4589 310.9388 311.2591 311.5283 311.722 312.107 312.4953 312.4987 313.1838 314.4011 314.987 315.5287 316.0165 316.48 316.8139 316.7659 317.0017 317.3241 317.1761 317.2867 317.6519 317.7837 318.376 319.8319 319.3002 318.6791 319.941 319.7738 318.8053 319.1485 319.3246 319.3143 319.8539 320.438 320.9544 320.8963 320.9189 322.6805 323.1142 322.5382 321.4788 320.3926 319.2974 319.215 319.3644 319.5779 319.7414 319.8285 319.4142 318.9001 318.2936 318.1677 318.0134 317.7646 317.8833 318.1711
349.7479 349.5356 349.2668 348.9557 348.1174 347.3081 346.5446 345.6486 344.9543 344.9072 344.513 343.9285 343.0938 342.4391 341.9497 341.44 341.0703 340.9478 340.5163 339.9435 339.1612 338.7976 338.6489 337.993 337.662 337.6855 337.9144 337.9268 337.4084 337.0634 336.7834 336.4755 336.3049 336.2325 336.2853 336.3276 336.3524 336.1618 336.0777 336.3972 336.5657 336.6718 336.8627 336.9292 336.8866 336.8054 336.8529 337.1237 337.076 336.8453 336.2336 335.8214 335.5123 335.0793 334.4478 333.586 332.6118 331.777 331.3091 330.5309 329.6629 328.9657 328.5866 328.4423 328.3347 328.2223 328.1062 328.0331 327.9891 328.0046 327.9619 327.8867 327.7648 327.6735 327.6122 327.5179 327.4557 327.4575 327.6589 327.8454 327.7217 327.4061 327.0052 326.8257 326.7089 326.6592 326.5462 326.4396 326.3687 326.2001 325.9855 325.7181 325.4357 325.1452 324.9156 324.6089 324.1878 323.946 323.7682 323.6799 323.4863 323.2351 322.9074 322.5874 322.2768 321.9072 321.5538 321.2363 320.8378 320.4226 320.0365 319.6289 319.2008 318.6186 318.1118 317.6975 317.9169 317.9305 317.238 317.0327 317.0253 317.049 316.9757 316.8404 316.801 316.777 316.7704 317.1769 317.5065 317.3584 317.2885 317.2439 316.9962 316.3855 315.4208 314.847 314.3887 314.0797 313.9111 313.8337 313.9941 313.8135 313.3982 312.5189 311.7739 311.186 310.524 309.9317 309.5063 309.0406 308.5815 308.2647 308.1339 308.1472 307.9129 307.5189 306.9075 306.3396 305.7386 305.0165 304.3075 303.5908 302.7386 301.7975 300.7733 299.7418 298.6891 297.6001 296.8445 296.1151 295.0798 293.728 292.1755 290.5323 288.8273 287.0411 285.4918 284.1868 283.3631 282.255 281.0561 279.9935 279.4576 279.3293 279.2041 279.082 278.9742 278.8594 278.726 278.5453 278.6687 278.9489 279.2569 279.3592 279.2583 279.3719 279.6548 280.2231 280.7941 281.0867 280.2003 279.4848 278.9289 279.564 280.2471 280.9974 281.4793 281.9309 282.3886 282.6034 282.8582 284.0249 285.2948 286.6472 287.6443 288.7782 290.1372 291.1354 291.8204 291.7618 291.4496 291.1005 291.4666 292.0947 292.9709 293.9798 294.9643 295.8716 296.563 297.3288 298.6956 300.0013 301.2519 301.9339 302.6765 303.4915 303.8772 304.052 303.8634 304.6623 306.0757 308.9077 310.5788 311.3144 311.7141 312.1428 312.6246 313.4046 314.2093 314.8784 315.2638 315.5056 315.7816 316.0433 316.2897 316.6373 316.9609 317.2412 317.4103 317.6264 318.2511 318.1559 317.6045 317.0244 316.398 315.741 315.5781 315.3779 314.9242 315.0941 315.4531 315.3972 315.3455 315.306 315.7025 315.8057 315.4361 315.3669 315.2531 314.8127 314.297 313.8368 314.4601 315.0467 315.5997 316.7294 317.636 318.0479 318.5681 319.1423 319.7881 320.2659 320.6372 320.8818 321.2205 321.6695 321.906 322.0967 322.2531 322.5628 322.8606 322.6913 322.7933 323.1144 323.4222 324.0156 325.0696 324.8072 324.3847 324.5407 324.4818 324.3464 324.659 325.7553 327.6471 327.3251 327.0012 327.1073 326.5971 325.8918 325.1964 324.779 324.544 324.2369 323.7483 323.0244 322.3418 321.8896 322.0167 322.1818 322.3458 322.3897 322.215 321.8593 321.3889 321.0591 320.9579 320.3636 319.7958
349.5432 349.2883 348.9726 348.6088 347.9425 347.0557 345.9079 344.8315 343.8574 343.0954 342.4361 341.8455 341.4422 340.9521 340.3972 340.0132 339.5844 339.0891 338.31 337.5522 337.017 336.7603 336.6537 336.6542 336.5407 336.3155 336.3212 336.1368 335.555 334.6229 333.6974 333.2298 333.032 332.9974 332.8143 332.839 333.109 333.0457 333.0696 333.4253 333.8328 334.2646 334.7456 335.0653 335.257 335.0909 335.0172 335.0937 334.9938 334.8666 334.7753 334.3147 333.6907 333.3562 332.8214 332.0769 331.1735 330.4035 329.9259 329.2706 328.6478 328.439 328.2884 328.1781 328.1678 328.138 328.0855 328.0841 328.041 327.8766 327.7582 327.6576 327.5361 327.4366 327.3547 327.3156 327.3146 327.371 328.18 328.6515 327.4932 327.5387 328.1884 328.3839 327.9803 326.9641 326.9252 326.8985 326.731 326.6237 326.4487 325.9395 325.6084 325.3917 325.254 325.1048 324.9427 324.9976 325.0346 324.9505 324.6086 324.1874 323.9298 323.6499 323.351 323.0919 322.8553 322.6532 322.3759 322.0497 321.6219 321.1838 320.721 320.0191 319.3896 318.8288 318.1572 317.5836 317.2281 317.7408 318.3855 318.4713 317.9444 317.0315 316.905 316.8878 317.0071 317.3278 317.7921 318.5142 318.9187 319.0788 318.5349 317.5981 316.3519 315.1547 314.0987 313.2621 312.6881 312.2688 312.1484 312.059 311.9438 311.3375 310.5094 309.461 308.7767 308.2645 308.0083 307.7922 307.5588 307.184 306.741 306.2623 306.137 305.8952 305.5124 305.1956 304.8277 304.2906 303.6278 302.9071 302.1373 301.2007 300.1216 299.0334 298.0276 297.1498 295.9563 294.5803 292.8754 291.2118 289.5679 287.8599 286.1464 284.4276 283.0901 281.9887 281.2895 280.6122 279.9434 279.2978 278.9392 278.7861 279.1463 279.3438 279.3199 279.2108 279.1334 279.163 279.3065 279.464 279.3835 279.271 279.1356 279.3433 279.6552 280.116 280.5501 280.7505 280.1675 279.3283 278.4206 278.6564 278.9858 279.4106 280.183 280.7781 280.9389 281.6156 282.5958 284.1444 285.8262 287.5825 288.2563 288.8678 289.3954 290.2047 290.9919 291.6006 292.1328 292.6868 293.8544 295.1461 296.5534 298.0189 299.1817 299.8712 300.7174 301.5566 302.2613 303.1337 304.1379 305.7356 307.398 309.1339 309.9053 310.4992 310.9379 311.4283 312.0146 312.9234 313.4926 313.8126 313.7874 313.8033 313.8732 314.4725 315.1667 315.8681 316.4782 317.0024 317.2203 317.5475 317.966 318.4302 318.8986 319.3671 319.9398 320.5229 321.0663 321.4607 321.752 321.8114 321.7405 321.5222 321.752 321.8056 321.4226 321.3693 321.3987 321.2891 321.1545 320.9836 321.1357 321.5285 322.2393 322.2568 322.0929 321.748 321.2743 320.8549 321.1404 321.3627 321.5227 321.8877 322.2454 322.5609 322.9748 323.4207 323.8795 324.3508 324.8373 325.4804 326.1491 326.8439 327.304 327.6242 327.7028 328.6501 329.4979 328.1684 327.9818 328.6044 328.7655 329.1508 329.795 330.983 331.9103 331.807 330.8412 329.7458 330.9494 331.3747 331.1157 330.7331 330.1754 329.3264 328.6858 328.0258 327.0825 326.3733 325.8099 325.2758 324.6787 324.0077 323.753 323.5878 323.5046 323.3615 323.265 323.5058 323.7429 323.9688 323.4031 322.7832 322.0945 321.6417 321.1616
349.3042 348.8641 348.345 347.7561 346.8344 345.8636 344.8416 343.7488 342.7068 341.7905 341.1255 340.5566 340.0679 339.5898 339.1218 338.7429 338.3852 338.0449 337.1002 336.2123 335.7598 335.6875 335.7103 335.1837 334.5915 333.9449 333.4937 333.2029 333.1581 332.4568 331.5783 330.6598 330.4072 330.5233 330.5907 330.5468 330.3855 330.9976 331.7183 332.4873 332.019 331.3463 331.7823 332.0954 332.3213 332.3758 332.5538 332.9017 333.1314 333.296 333.3319 333.0399 332.5287 331.4705 330.7183 330.2257 329.8903 329.4315 328.7654 328.4398 328.2428 328.2025 328.1804 328.1665 328.1217 328.0666 327.9991 327.8705 327.7207 327.5372 327.3844 327.257 327.2104 327.156 327.0967 327.0403 326.9963 326.9687 327.2659 327.5747 327.721 327.6831 327.5137 326.9622 326.7515 326.825 326.6341 326.4753 326.3824 326.4449 326.4354 325.9798 325.7155 325.5793 325.6963 325.7788 325.8265 325.8304 325.8201 325.7909 325.6991 325.5594 325.2911 325.1016 324.9655 324.539 324.2738 324.2176 323.9297 323.6089 323.3058 322.9391 322.5361 322.0747 321.3327 320.3494 319.4394 318.6468 318.0446 317.5474 317.152 317.0318 317.6046 318.5083 317.9961 317.826 318.0436 317.7552 317.6471 318.0034 318.7834 319.5044 319.1367 318.3023 317.1395 316.1852 315.0444 313.6698 312.2895 311.1273 310.5544 310.0283 309.5285 309.0811 308.6095 308.1157 307.6874 307.3983 307.3385 307.1316 306.9053 306.7292 306.4869 306.1984 305.8694 305.423 304.847 304.1461 303.4697 302.8975 302.1361 301.2909 300.3587 299.442 298.5323 297.691 296.733 295.6062 294.2143 292.7106 291.0034 289.0817 287.1006 285.4297 283.9164 282.5408 281.4046 280.4446 279.7664 279.1815 278.7203 278.6201 278.4941 278.3443 277.9928 277.9565 278.2651 278.1469 278.0424 278.0854 278.5063 278.9944 279.1281 279.0839 278.9082 279.0427 279.1743 279.3011 279.4391 279.5078 279.3618 279.3591 279.4731 280.0289 280.4715 280.8203 281.6203 282.4099 283.1348 283.5617 283.9071 284.2957 285.1602 286.3174 287.9037 289.6205 291.4868 292.8399 293.7928 294.0088 294.9072 296.1216 297.6519 298.9458 300.0639 301.4033 302.6402 303.7217 304.8961 306.0831 307.2533 308.2997 309.2782 310.1451 310.9703 311.7484 312.2121 312.6815 313.1985 313.7758 314.3514 314.8548 315.2162 315.481 315.5377 315.5508 315.5126 315.6674 315.8955 316.236 316.6578 317.1024 317.4959 317.8674 318.2236 318.8474 319.5092 320.2258 321.1044 321.9778 322.757 323.3266 323.7712 324.0428 324.2564 324.4131 324.4604 324.4895 324.4832 324.539 324.665 324.9356 325.2439 325.5791 325.9347 326.4444 327.17 326.4283 326.1572 327.47 326.8262 325.5996 325.4272 325.4697 325.6798 325.8283 326.0575 326.4089 326.862 327.3372 327.8231 328.3941 329.0134 329.7047 330.2358 330.6222 331.6612 332.3115 332.2002 331.5841 331.0441 331.3397 331.6094 331.8892 332.1963 333.1504 334.8841 333.988 333.3632 334.0956 334.1607 334.0748 334.5726 334.6283 334.3308 333.6257 332.9854 332.4417 331.6884 330.9249 330.2568 329.4124 328.4752 327.512 326.7707 326.2368 325.8485 325.585 325.5352 325.4872 325.3655 324.9589 324.6226 324.3341 324.0405 323.6619 323.1743 322.4764 321.869
347.4025 346.2458 345.42 344.7732 344.3191 343.5067 342.36 341.4561 340.6473 339.9755 339.4012 338.9137 338.6436 338.1749 337.5904 337.0083 336.4026 335.7775 335.6202 335.3216 334.6023 333.7436 332.8932 332.3168 331.8553 331.472 330.5676 329.9545 329.7462 329.3492 328.8206 328.0256 327.6249 327.4492 327.6118 327.6854 327.6759 327.8514 328.2252 328.9243 329.2479 329.416 329.3836 329.3687 329.3831 329.8019 330.2704 330.7918 330.9213 330.9694 330.9517 330.9335 330.8357 330.2953 329.6803 329.0113 329.352 329.2237 328.4367 328.2151 328.1278 328.1068 328.0369 327.944 327.8659 327.7676 327.6493 327.4949 327.3386 327.1805 327.1426 327.1146 327.0011 326.894 326.792 326.7532 326.715 326.6765 326.6598 326.6425 326.6168 326.5542 326.5039 326.5985 326.6604 326.6924 326.6064 326.5039 326.3783 326.4038 326.4072 326.2598 326.176 326.1542 326.415 326.72 327.0724 327.1859 327.2346 327.1975 327.0974 326.9877 326.9153 326.7987 326.6559 326.4655 326.2406 325.9792 325.7576 325.4245 324.8215 324.3052 323.8282 323.3854 322.7966 322.0954 321.1837 320.209 319.135 318.5307 318.085 317.808 318.392 319.3393 319.4583 319.2712 318.8139 318.3879 318.2224 318.5475 318.4807 318.4175 318.7719 318.6764 318.2849 317.6828 316.2711 313.9109 312.1832 310.6687 309.4618 308.9735 308.7392 308.4033 308.1575 307.9786 307.6356 307.2801 306.9178 306.5591 306.1699 305.7035 305.4654 305.3039 304.755 304.123 303.4098 303.1078 302.7421 302.1956 301.2476 300.2165 299.3114 298.5317 297.815 296.627 295.2665 293.7126 291.9575 290.1131 288.1288 286.175 284.2786 282.6837 281.5515 280.7701 279.7278 278.8048 278.0734 277.7467 277.5666 277.5825 277.6357 277.6742 277.3916 277.3734 277.6164 278.1111 278.3156 277.9286 277.832 277.8557 277.9918 278.043 278.0414 278.1407 278.259 278.4005 278.4758 278.541 278.6069 278.7366 278.9346 279.4031 279.8681 280.3255 280.9081 281.5745 282.3643 283.0034 283.574 284.0345 285.3198 287.0327 288.8921 290.5892 292.1209 293.8299 295.416 296.7526 296.9526 297.0493 298.1801 299.3332 300.4908 301.5289 302.5293 303.4775 304.3168 305.1232 305.877 306.647 307.4268 308.2391 309.002 309.7244 310.5052 311.3584 312.3193 312.9689 313.6007 314.4194 314.8839 315.1844 315.6965 316.1302 316.4877 316.7336 316.9732 317.2179 317.3217 317.3964 317.5199 317.717 317.9687 318.5121 319.2657 320.2695 321.4414 322.5853 323.5942 324.3706 325.119 326.2737 326.8737 327.038 326.8906 326.7691 326.7129 325.8633 325.4434 326.9704 326.7596 325.8643 327.2045 327.8824 327.8794 327.1612 326.7353 326.9258 327.2194 327.5446 327.8675 328.0898 328.2492 328.4683 328.748 329.0978 329.2889 329.5346 329.9805 330.4323 330.882 331.2815 331.9356 332.7892 332.8582 332.876 332.8041 332.5598 332.6898 334.2443 333.8773 332.7289 334.5761 334.9245 333.7504 334.778 335.6364 335.6923 335.4093 334.9559 334.1131 333.9484 334.252 335.3178 335.757 335.388 334.6668 333.9088 333.1912 332.5616 331.9567 331.2791 330.4438 329.4756 328.9911 328.532 328.0713 327.5794 327.0247 326.2632 325.6696 325.179 324.8241 324.3629 323.7932 323.3542 323.011
344.3036 343.5085 342.8961 342.342 341.7233 341.1435 340.5928 339.6951 338.8989 338.2657 337.9475 337.6915 337.4233 337.0121 336.5341 336.0751 335.5787 335.0444 334.6722 334.2203 333.5859 332.4549 331.2579 330.4122 329.7513 329.2135 328.6161 327.8923 327.005 326.4848 326.0881 325.8509 325.8084 325.8231 325.7503 325.6229 325.456 325.8103 326.4433 327.4672 328.146 328.634 328.7497 328.8305 328.9054 329.2894 329.4324 329.331 329.5669 329.6243 329.2936 328.9815 328.7462 328.8525 328.785 328.5984 328.2723 328.0058 327.8189 327.7674 327.7531 327.7821 327.7906 327.7668 327.5794 327.3788 327.165 327.1971 327.2849 327.4495 327.4415 327.3417 327.0592 326.8862 326.7708 326.6689 326.6314 326.66 326.6289 326.5803 326.5088 326.5033 326.5273 326.58 326.7513 326.9983 327.1574 327.2772 327.3506 327.4019 327.4996 327.7124 327.8831 328.0338 328.1866 328.3437 328.5015 328.3274 328.194 328.1316 328.1108 328.0833 328.0062 327.974 327.9608 327.9472 327.9137 327.8566 327.6562 327.391 327.0224 326.4215 325.7369 324.9934 324.1978 323.3494 321.7218 320.5331 319.8867 319.556 319.0912 318.2037 317.8408 317.7182 317.8509 317.89 317.8468 317.4379 317.2867 317.5616 317.6525 317.5353 316.8681 316.2357 315.5945 314.5978 313.4148 312.0419 311.0101 310.1034 309.388 308.4951 307.6641 307.3813 307.2191 307.1294 306.8272 306.4654 306.0252 305.266 304.572 304.207 304.0428 303.9087 303.4136 302.9243 302.44 301.943 301.3026 300.4299 299.6624 298.9028 298.0758 296.9478 295.6534 294.3244 292.731 290.8595 288.7228 286.7509 285.1682 283.6698 282.1804 280.6027 279.4865 278.693 278.197 277.6864 277.1547 276.9194 276.8246 276.9712 277.2607 277.5738 277.6499 277.6617 277.6234 278.0178 278.2316 278.1205 278.2238 278.3774 278.5112 278.3405 278.0324 278.114 278.2564 278.4527 278.5281 278.5587 278.5179 278.9548 279.5399 280.1061 280.6022 281.0577 281.7494 282.2748 282.591 282.7005 282.9258 283.5241 284.9845 286.8459 288.8813 290.4048 291.5043 293.5578 295.2891 296.4387 296.9284 297.4446 298.656 299.4135 299.9518 300.6826 301.2711 301.716 302.0476 302.4508 303.0223 303.6686 304.3371 304.978 305.6745 306.4088 307.1676 308.0101 308.9617 309.8217 310.6427 311.3891 311.9843 312.5075 312.9925 313.7427 314.7178 315.5776 316.3739 317.0691 317.6285 318.2358 319.166 319.2289 318.8362 319.3074 320.0114 320.968 322.0587 323.0998 323.9962 324.6299 325.2688 326.382 326.7309 326.5393 326.7622 326.6692 326.1745 325.5696 325.1732 325.4514 325.5835 325.6761 325.9788 326.6806 327.7482 326.9872 326.6736 327.2887 327.9594 328.7012 329.6245 329.6588 329.3579 331.1322 331.3315 329.8224 330.0731 330.4777 330.7941 331.282 331.7901 332.0753 333.2216 334.9722 335.0246 335.1885 335.4745 335.0486 334.6445 334.6548 333.799 332.8413 334.3961 335.2904 335.5536 334.5548 333.7475 333.379 333.2352 333.2888 333.7825 334.0289 334.164 335.2898 336.1514 336.7187 336.1768 335.4993 334.805 334.2043 333.6369 333.0656 332.3375 331.4995 331.0287 330.5197 329.9711 329.4085 328.8083 328.1224 327.4497 326.7997 326.2873 325.7432 325.168 324.8986 324.6371
343.2545 342.1201 341.2559 340.4936 339.786 338.9988 338.1566 337.3705 336.8056 336.5352 336.6086 336.6503 336.4566 336.127 335.6954 334.9493 334.2666 333.6402 333.0933 332.4232 331.5533 330.4562 329.3249 328.2799 327.4135 326.6742 326.2063 325.6631 325.0374 324.7167 324.5201 324.507 324.4437 324.4347 324.7734 324.9674 325.0491 325.4764 326.2288 327.4196 328.2073 328.6749 328.4879 329.019 329.7568 329.6625 329.562 329.4532 329.584 329.3364 328.4448 328.5201 328.7901 328.9065 328.8318 328.6497 328.4344 328.2112 327.9772 327.8843 327.8446 327.8813 327.8307 327.7114 327.3967 327.2047 327.1004 327.2054 327.2816 327.3212 327.184 327.0669 327.0916 327.1518 327.2342 327.3672 327.5304 327.7186 327.7692 327.8618 328.0335 328.0997 328.1612 328.3145 328.3677 328.3712 328.4657 328.5848 328.7297 329.0262 329.2556 329.3035 329.361 329.4552 329.7144 329.7491 329.6282 329.3806 329.1774 329.0396 328.9473 328.885 328.8915 328.9046 328.9315 329.0639 329.0834 329.0041 328.9049 328.7492 328.4992 328.051 327.4731 326.6135 325.615 324.5007 322.8303 321.2836 319.8784 318.9733 318.0977 317.1703 316.8036 316.6049 316.2349 315.8774 315.527 315.3865 315.4747 315.8667 316.0678 315.9912 315.2444 314.4413 313.6158 312.7766 311.7453 310.539 309.6325 308.9371 308.5771 308.0268 307.4384 306.9021 306.6809 306.6396 306.4565 306.0696 305.454 305.1527 304.8962 304.6505 304.1386 303.5028 302.7556 302.155 301.6631 301.0433 300.4377 299.8488 299.2695 298.4682 297.0564 295.6373 294.2275 292.9278 291.39 289.638 287.6041 285.6116 283.7194 281.9656 280.392 279.3437 278.6351 278.1151 277.4735 277.0504 276.8662 276.7189 276.5838 276.4655 276.8279 277.394 278.1114 278.3591 278.2661 278.3178 278.4762 278.7751 278.7877 278.888 279.3893 279.538 279.4654 278.9411 278.6884 278.6897 278.9936 279.4155 280.0096 280.7152 281.3524 281.6371 281.6898 281.6117 281.7219 281.7946 281.8291 281.9629 282.4123 283.5211 285.2644 287.2558 289.3214 290.9723 292.3247 293.681 294.8544 295.769 296.3365 296.9641 297.9633 298.1282 297.9143 298.1234 298.1983 298.1725 298.9366 299.8147 300.787 301.574 302.2722 302.8396 303.3377 303.797 304.3018 304.7923 305.2628 306.1602 306.9746 307.485 308.063 308.6954 309.5067 310.359 311.2387 312.3865 313.5883 314.8615 315.944 316.9579 317.8975 318.7646 319.5667 320.1686 320.8542 321.6233 322.5296 323.4084 324.2118 325.6086 326.7567 326.2325 325.8812 325.6698 326.1765 325.9385 324.8349 324.6985 324.8618 325.4262 325.8427 326.2039 326.581 327.596 329.077 327.7407 327.0915 327.4384 327.7682 328.1535 328.7218 328.9273 329.0791 330.764 331.5449 331.4554 330.4307 330.0035 330.7209 331.2606 331.731 332.1332 332.83 333.7191 334.5388 335.0204 335.1516 335.0046 334.8818 334.9087 334.9642 334.9545 334.4897 334.3891 334.597 334.4803 334.501 334.7341 334.615 334.2226 333.3139 334.3347 335.9804 334.5344 334.3008 335.2378 335.6187 335.7421 335.4996 335.0855 334.6875 334.5763 334.2201 333.6894 332.7841 332.1508 331.8438 331.157 330.4368 329.7586 329.1678 328.6233 328.1388 327.4023 326.4687 326.0829 325.9334
342.5303 340.8987 339.7455 338.8062 338.1786 337.4777 336.7498 336.3645 336.0833 335.9215 335.6168 335.3259 335.0883 334.7395 334.2989 333.5709 332.8965 332.2606 331.8932 331.3368 330.5084 329.4597 328.4934 327.8816 326.9608 325.9197 325.1553 324.778 324.7472 324.2614 324.0061 324.2075 324.2695 324.2392 324.0107 324.2458 324.791 325.8604 327.0962 328.5254 328.9991 329.1598 328.861 328.7805 328.7867 328.8034 328.7558 328.6573 328.6862 328.8744 329.2971 329.3648 329.2653 328.8739 328.9707 329.1891 328.1902 328.0385 328.6879 328.4792 328.4223 328.7518 328.8422 328.7049 327.9588 327.4465 327.0923 327.0539 327.0171 326.9826 327.1515 327.3934 327.7548 328.0964 328.4239 328.7148 328.8512 328.8717 329.0637 329.2422 329.4016 329.5859 329.7752 329.9495 330.0435 330.0875 330.0305 330.0422 330.1215 330.1841 330.2283 330.2349 330.3665 330.5219 330.6214 330.6927 330.7246 330.2693 329.8972 329.6244 329.5251 329.462 329.4285 329.5065 329.6045 329.5594 329.5141 329.4694 329.4231 329.2991 329.0676 328.6508 328.1021 327.2681 326.3154 325.2621 323.7738 321.9132 319.706 318.6421 318.0171 318.0255 316.8153 315.6045 315.7619 315.7107 315.5281 315.2146 314.76 314.155 313.9213 313.7124 313.4276 312.9063 312.2783 311.5924 310.7819 309.8747 309.0617 308.4404 308.0974 307.787 307.4494 307.0163 306.5034 305.9648 305.5275 305.09 304.6482 304.1843 303.7701 303.4522 303.3694 303.32 303.1134 302.37 301.3006 300.3957 299.4231 298.363 297.1381 295.8207 294.3221 293.0302 291.8312 290.7409 289.1844 287.2671 285.0945 283.0892 281.336 280.2409 279.3945 278.905 278.478 278.0899 277.6936 277.2942 276.8907 276.755 276.75 276.9477 277.2555 277.5806 277.8521 278.0734 278.2613 278.2618 278.2393 278.1933 278.3544 278.4587 278.3498 278.3125 278.3133 278.3479 278.3391 278.2925 278.2608 278.5776 279.4303 280.4753 281.2398 280.9874 280.7104 280.455 280.5759 280.8677 281.3238 282.018 282.928 284.223 285.8271 287.4925 288.9956 290.1718 291.1146 291.2723 291.5867 292.1018 292.6087 293.1096 293.5963 293.9944 294.4215 295.2446 296.1566 297.1347 296.3757 296.1645 296.8554 298.1318 299.4224 300.3618 301.12 301.7472 301.9583 302.2419 302.5974 303.1134 303.6198 304.0691 304.806 305.5948 306.2313 307.0789 308.0687 309.238 310.5548 312.0526 313.0955 314.171 315.4719 316.834 318.2102 319.4943 320.538 321.3892 322.2897 323.1057 323.8031 324.9162 325.8616 325.9578 325.8909 325.7608 325.8871 325.4159 324.3454 324.4467 324.7448 325.2274 325.7259 326.2177 326.6665 327.2771 328.0152 328.8116 329.3411 329.608 328.4705 327.8602 329.0774 329.9256 330.5045 330.0889 329.901 329.8923 328.8183 328.3396 328.8435 329.4874 330.0955 330.4905 330.8146 331.1298 331.7657 332.3784 332.9738 334.0439 334.1606 332.3713 332.2403 332.7692 333.9715 334.2485 333.9133 333.9288 334.0437 334.2772 334.4744 334.2792 333.1105 332.9441 333.2561 333.9489 334.0896 333.8114 335.4585 336.3161 335.8403 335.3508 334.939 334.798 334.2366 333.4912 333.2917 333.2251 333.2811 332.4508 331.5249 330.5786 330.1794 329.9337 329.5842 329.3492 329.1958 329.0323 328.7091
342.1959 340.7627 338.8966 337.2696 336.6783 335.903 335.0692 334.7133 334.4624 334.3148 333.9033 333.547 333.3424 333.2625 333.1134 332.4936 331.867 331.2454 330.792 330.0901 329.076 328.1458 327.2209 326.2935 325.3737 324.4774 323.6965 323.2878 323.1767 323.2235 323.2094 323.0867 323.3656 323.785 324.36 325.1795 326.1347 327.1878 327.9267 328.3563 328.7371 329.0398 329.1916 329.4557 329.7454 329.9977 330.0631 330.0056 330.0845 330.2098 330.394 330.0477 329.4746 328.5251 327.9587 327.5737 327.3723 327.5152 327.9424 328.2589 328.4281 328.3785 328.7304 328.9037 328.2023 327.7008 327.3328 327.2086 327.2957 327.5891 328.119 328.6688 329.2148 329.5646 329.8222 329.9373 330.098 330.2856 330.5601 330.7688 330.8946 330.9659 331.0454 331.1732 331.3094 331.4389 331.5038 331.4694 331.3554 331.1414 330.9648 330.8521 330.8922 330.9633 331.0211 331.1304 331.2354 330.9425 330.5431 330.0399 330.3273 330.3548 329.7528 329.679 329.7391 329.6591 329.7539 329.9478 329.5993 329.2976 329.041 328.8387 328.5818 328.1922 327.3697 326.2328 324.1212 322.043 319.9833 318.5022 317.3734 316.7562 316.0746 315.5601 315.6598 315.7026 315.6826 315.2926 314.8665 314.4024 314.0282 313.5837 312.9859 312.2487 311.4734 310.7386 310.0139 309.3044 308.7205 308.1934 307.754 307.496 307.2908 307.127 306.5152 305.6986 304.811 304.203 303.8288 303.601 303.3008 302.8817 302.7139 302.648 302.7191 302.3632 301.754 300.9416 299.6516 297.8684 296.0539 294.206 292.2696 290.3544 288.5711 287.3545 286.0228 284.607 282.6112 280.9697 279.7899 279.3338 278.9367 278.3819 277.8994 277.4582 277.0676 276.8884 276.8904 276.8715 276.971 277.2722 277.4771 277.6558 277.834 277.7622 277.5582 277.4081 277.4296 277.6237 278.0838 278.3856 278.3223 277.8584 277.392 277.5283 277.6157 277.6754 278.0096 278.5046 279.2085 279.7328 280.0954 280.0899 279.8991 279.7227 280.2427 281.0561 282.1198 283.5168 284.8157 285.9422 287.1494 288.2088 288.6855 289.0306 289.3096 289.661 289.896 290.0063 290.0849 290.1812 290.3147 290.5117 290.7616 291.1869 291.907 292.8376 294.0066 294.9331 295.5212 296.5306 297.2917 297.2516 297.8244 298.6313 299.285 299.7932 300.1806 300.6621 301.1519 301.6541 302.3561 303.1032 303.8387 304.6933 305.6325 306.8155 307.8451 308.713 309.9481 311.2892 312.7769 314.2014 315.6022 316.9952 318.1083 319.0251 319.9831 320.8511 321.6004 322.0278 322.5345 323.3847 323.9092 324.2447 323.7127 323.4435 323.4103 323.9153 324.4699 325.0789 325.3622 325.6454 326.2286 326.9337 327.7093 328.6486 328.6078 327.4387 328.3101 329.0939 329.1704 329.0015 328.7545 328.5804 328.5833 328.7032 327.4371 326.8734 327.2423 327.6148 327.9659 328.2534 328.5431 328.8388 329.1777 329.6159 330.1395 330.7217 331.7935 333.6739 333.801 333.5435 333.4502 333.1776 332.8138 332.7118 332.8107 333.1307 333.505 333.1799 331.3716 331.4892 332.2226 332.7422 332.9334 332.8557 333.2546 333.8918 334.8032 334.7596 334.5942 334.5739 334.3551 334.0448 333.7615 333.6024 333.5685 333.1614 332.5417 331.6034 331.1022 330.7881 330.727 330.4143 329.9704 329.7344 329.4666
340.9241 339.2991 337.3234 335.6606 334.9881 334.1576 333.3226 333.035 332.8934 332.8759 332.3674 332.0867 332.2274 331.788 331.2238 330.7484 330.4611 330.237 329.4525 328.64 327.7948 326.9129 326.0391 325.1965 324.3821 323.6508 323.302 323.1461 323.1314 323.1738 323.0398 322.6796 323.1504 323.8721 324.884 326.1306 327.4171 328.2265 328.7235 328.9427 328.2133 327.7955 327.9475 328.4171 328.881 329.0454 329.1017 329.1042 329.1879 329.3994 329.7456 329.2952 328.7727 328.2865 328.0807 327.8511 327.0095 326.8125 327.063 327.354 327.526 327.5323 328.0483 328.5629 328.8119 328.6949 328.4135 328.1884 328.2576 328.5746 329.4331 330.106 330.4349 330.6403 330.8144 330.9898 331.0973 331.1809 331.5266 331.7868 331.9513 332.102 332.1923 332.1552 331.9598 331.7397 331.6474 331.5901 331.5603 331.3969 331.2372 331.0859 331.107 331.1685 331.2488 331.333 331.3962 331.2621 331.0753 330.8342 330.5458 330.3466 330.3148 329.8714 329.4361 329.4265 329.4277 329.4154 329.0407 328.5786 328.0222 327.8129 327.7052 327.7231 327.0123 325.866 323.8115 322.0535 320.5118 318.4914 316.9027 315.915 315.2729 314.8052 314.6414 314.6564 314.7368 314.5815 314.2499 313.7566 313.2078 312.6695 312.1526 311.6832 311.2496 310.9031 310.2016 309.2683 308.0156 307.5354 307.9154 307.4857 306.9761 306.5174 306.1705 305.8028 305.1325 304.4058 303.6457 303.5287 303.3 302.9149 302.6611 302.4937 302.4979 302.2692 301.9588 301.8607 301.3773 300.5388 298.4547 296.2223 293.8755 291.588 289.3862 287.459 285.6012 283.7672 281.6886 280.0591 278.9273 278.5436 278.0587 277.1599 276.4841 275.999 276.1255 276.3003 276.5112 276.7018 276.8151 276.8193 277.0326 277.2894 277.5508 277.639 277.6333 277.5111 277.4955 277.5798 277.7921 277.998 278.1757 277.8861 277.4572 277.0098 276.7586 276.6342 276.5704 276.8552 277.5347 278.5889 279.4171 279.6544 279.8478 280.1551 281.1795 282.4091 283.7996 285.0523 286.1832 287.1343 287.6773 288.1436 288.6018 288.6714 288.5567 288.5322 288.5258 288.5342 288.3971 288.3351 288.4268 288.7546 289.1494 289.5495 289.9273 290.3057 290.9589 291.8499 293.0161 294.2091 294.7732 293.9126 294.5342 295.6675 296.5105 297.1763 297.7115 298.2241 298.7188 299.1879 299.9205 300.7101 301.5207 302.3589 303.2325 304.2932 305.3887 306.513 307.6044 308.8012 310.193 311.3496 312.4602 313.6409 314.8231 316.006 317.1874 318.189 318.9857 319.6511 320.2304 320.6835 320.8652 320.9884 321.5961 322.3447 323.1954 323.6273 324.8035 327.0175 326.1083 325.4266 327.1787 326.8873 325.8799 327.0131 327.6502 327.8642 327.3211 326.8905 326.7495 326.9487 327.2171 327.3795 327.0231 326.3708 325.7918 325.594 325.8661 326.1328 326.3748 326.5629 326.8421 327.1482 327.4155 327.8458 328.402 328.8857 329.3791 329.8943 331.2283 332.2251 331.7474 331.7366 331.923 331.8529 331.8375 331.8785 332.1537 332.4783 332.8654 332.3734 331.616 330.9582 330.9083 331.2143 331.5255 332.5399 334.3869 333.7705 333.2739 333.7715 333.6712 333.3878 333.3392 333.1773 332.9272 332.6237 332.3098 331.9778 331.4308 330.9277 330.7113 330.3764 329.9998 329.8342 329.6584
340.0461 338.1905 335.9122 334.0553 333.2625 332.7507 332.3621 332.09 331.845 331.6261 331.1102 330.6933 330.4171 330.077 329.6463 328.9905 328.7679 328.6875 327.9623 327.1998 326.406 325.8155 325.146 324.3154 323.5383 322.8062 322.2015 322.016 322.0814 322.2059 322.4044 322.6856 323.196 323.8323 324.6888 325.3249 325.8706 326.3931 326.8127 327.1454 326.8923 326.8735 327.2087 327.6797 328.1083 328.3 328.2164 328.0314 328.0644 328.0422 327.9622 327.9283 327.8068 327.528 327.2266 326.946 326.7719 326.9071 327.1999 326.6921 326.46 326.552 326.9846 327.3813 327.5748 327.7111 327.786 327.6167 328.0627 328.9741 329.6815 330.303 330.7943 331.1102 331.3462 331.4586 331.5743 331.6964 331.8636 331.928 331.8924 332.0183 332.1597 332.3047 332.2705 332.2979 332.8127 332.7149 332.2476 332.3658 332.238 331.8046 331.6492 331.3625 330.6822 330.2311 329.9842 330.4192 330.3453 329.887 330.0859 329.9245 329.2296 328.8499 328.5223 328.1729 327.9008 327.6732 327.5085 326.943 326.001 325.8141 325.6269 325.3456 324.5237 323.4915 322.2228 320.9018 319.5603 318.4821 317.1015 315.3797 314.3542 313.8558 314.3521 314.2607 313.8967 313.2738 312.9627 312.8855 312.6569 312.3052 311.7865 311.2936 310.7393 309.9823 309.4442 308.942 307.6969 306.7987 306.2501 306.6879 306.7303 305.9045 305.1034 304.4444 304.3265 304.096 303.7808 303.1865 302.8023 302.6683 302.6436 302.5899 302.436 302.1172 301.8077 301.9437 301.748 301.2853 299.6288 297.5753 294.9581 292.3074 289.8339 287.938 286.0851 284.2331 282.1336 280.2791 278.6675 277.8068 277.0394 276.3271 275.554 275.0087 275.5511 276.1571 276.7814 276.8049 276.8477 276.9093 276.971 277.0126 277.0132 276.9029 276.792 276.9435 277.2389 277.6491 277.6779 277.546 277.1913 276.9609 276.7675 276.6036 276.3439 276.0538 275.9776 276.3883 277.2878 278.3678 279.2336 279.6578 279.9909 280.4762 281.7603 283.2382 284.8295 285.8127 286.7024 287.4803 288.0615 288.3796 288.1227 288.2709 288.5465 288.6153 288.6949 288.7834 288.4503 288.1548 287.9289 287.8599 287.8317 287.8108 287.8538 287.975 288.6035 289.3201 290.1255 291.3011 292.4496 293.4703 293.6382 293.6648 294.1649 294.9573 295.9127 296.3436 296.8222 297.3576 297.932 298.5748 299.355 300.2205 301.1265 302.0942 303.1375 304.2455 305.1697 306.2492 307.5659 308.5135 309.3993 310.3564 311.4691 312.6793 314.1048 315.3028 316.2713 317.1996 317.958 318.398 318.8657 319.4249 320.3878 321.2623 322.0735 322.5289 323.0031 323.5058 323.6715 323.835 324.1083 325.1793 326.3829 326.2773 326.2849 326.3901 326.1516 325.9182 325.7145 325.6384 325.6663 325.9523 325.136 323.9351 325.1358 325.3505 324.5241 324.7258 324.99 325.2036 325.3587 325.6138 326.3926 326.6125 326.5033 327.044 327.44 327.6546 327.5216 327.667 328.5862 329.2737 329.8135 330.1313 330.3225 330.408 329.3065 328.6576 328.7633 330.075 330.9571 329.5365 329.2246 329.4951 329.7923 330.9962 333.1216 333.4661 333.4973 333.2314 332.8653 332.4941 332.2517 332.0959 331.9969 331.7572 331.4943 331.2021 331.1975 331.1597 330.9334 330.4287 329.8759 329.7652 329.7331
338.3425 336.3617 334.8076 333.4463 332.3967 331.6216 331.0272 330.8316 330.6055 330.3493 329.7483 329.2225 328.7905 328.4142 328.0156 327.5445 327.375 327.2742 326.8165 326.2248 325.5236 325.0956 324.5387 323.7698 323.0628 322.4076 321.8707 321.7389 321.8333 322.0412 322.1242 322.0727 322.2491 322.6089 323.2884 324.1837 325.0743 325.64 325.9814 326.1728 326.1211 326.0359 325.9156 325.9715 326.3516 327.4973 327.3496 326.6715 326.0933 325.8512 325.8922 325.8101 325.869 326.1575 326.483 326.7494 326.8128 326.648 326.3639 325.9898 325.5074 324.925 325.1633 325.4613 325.7362 326.0749 326.3863 326.4973 327.1684 328.2206 329.3289 330.0789 330.3937 330.8152 331.1796 331.3578 331.4868 331.5792 331.5599 331.6748 331.8958 331.7527 331.6233 331.5332 331.3215 331.1836 331.3612 331.3277 331.1818 330.9518 330.7145 330.477 330.4712 330.4071 330.1845 329.8644 329.5163 329.1971 328.8199 328.4002 328.0113 327.606 327.1847 326.821 326.4683 326.1218 325.9601 325.8257 325.3174 324.8138 324.318 323.9967 323.6627 323.3181 322.7124 321.9981 321.1241 320.0026 318.738 317.3842 316.3285 315.5931 314.5029 313.6431 313.3203 312.984 312.6444 312.3066 312.2781 312.4532 312.4952 312.1441 311.2855 310.4789 309.7328 309.1218 308.5999 308.1348 307.7776 307.3499 306.8631 306.6347 306.3052 305.7957 305.176 304.5829 304.1826 303.7935 303.4106 303.0515 302.7626 302.5443 302.4803 302.4675 302.5243 302.4818 302.4086 302.3432 302.1131 301.7495 300.0243 297.8713 295.1655 292.6455 290.2948 288.312 286.3201 284.3282 282.3453 280.3787 278.4248 276.9834 275.9728 275.611 275.6296 275.7541 275.9452 276.2194 276.5069 276.2872 276.3802 276.7977 276.9772 276.9872 276.7004 276.4284 276.2071 276.2169 276.5124 276.9979 277.1686 277.0841 276.6647 276.2302 275.9358 276.0045 275.9727 275.9663 276.4857 277.2872 278.3271 278.9105 279.4396 279.9041 280.426 281.0422 281.9381 282.8549 283.8008 285.0047 286.3213 287.7481 288.8434 289.6367 289.9022 289.8242 289.6403 289.5053 289.2776 288.9849 288.5821 288.2212 287.9062 287.6512 287.4384 287.3127 287.3045 287.3736 287.6172 288.0138 288.5507 289.6462 290.8755 292.2883 293.4461 294.3441 294.5365 294.8571 295.2082 294.9654 295.1722 295.8297 296.3597 297.0101 297.9439 298.941 299.9625 301.0023 301.9891 302.9322 303.6079 304.2972 305.0107 305.8049 306.6403 307.5403 308.5087 309.5374 310.8057 312.0333 313.2154 314.0655 315.113 316.5259 317.4248 318.185 318.9135 319.5391 320.1175 320.8478 321.4925 322.0466 323.8285 324.6799 323.2052 322.9409 323.3086 324.5453 325.0413 324.9999 324.9212 324.9409 325.0839 323.9271 322.9022 322.8516 323.8823 325.1234 323.8758 323.22 323.075 323.4495 323.7206 323.7749 324.0201 324.6062 326.263 326.7846 326.651 326.5928 326.5765 326.6002 326.5877 326.4901 326.2817 326.599 326.8186 325.5435 325.162 325.406 326.6717 326.8605 325.6786 326.3096 327.0312 327.0089 327.3037 327.7551 328.181 329.4495 331.4744 331.9302 331.982 331.5012 331.1093 330.8408 330.9349 331.0475 331.1522 330.9919 330.8911 330.8585 330.8349 330.8687 331.0232 330.9473 330.7665 330.4985 330.4476
336.7971 335.2472 333.9715 332.692 331.3788 330.0997 329.0463 328.7839 328.8082 328.9767 328.8235 328.4269 327.7759 327.5114 327.2249 326.8043 326.4479 326.1293 325.8621 325.3438 324.6526 324.4224 324.1109 323.6908 322.9518 322.1835 321.4895 321.1371 320.9375 320.7371 320.6295 320.6057 320.9501 321.4142 322.0515 322.7598 323.4734 324.1226 324.4916 324.6937 324.8409 325.0569 325.3366 325.2659 324.9646 324.2476 323.6794 323.2057 322.9578 322.6773 322.3748 322.1413 322.1766 322.56 323.0808 323.545 323.768 323.9148 323.9944 323.8025 324.067 324.7251 324.8137 324.4798 323.5333 323.9012 324.4771 324.588 324.9941 325.5991 326.6704 327.5863 328.323 329.3448 330.1212 330.313 330.4728 330.7033 331.3632 331.8232 332.136 331.5436 331.0442 330.6834 330.0624 329.5027 329.2426 329.0246 328.8246 328.5907 328.5398 328.6616 328.5022 328.3079 328.0819 327.9002 327.5988 326.7965 326.2585 325.8895 325.8312 325.5675 325.0795 324.5509 324.1411 323.9965 323.8919 323.7336 323.2565 322.8362 322.4654 322.2996 322.0237 321.589 320.9279 320.2107 319.4544 318.3365 317.0542 315.8283 314.7073 313.6745 312.8759 312.4216 312.5565 312.2526 311.9325 312.011 312.2374 312.53 312.4208 312.1156 311.5871 311.0567 310.5229 309.988 308.9514 307.7979 306.9491 306.4186 306.1138 305.6967 305.2632 304.8036 304.5009 304.2086 303.8683 303.6139 303.3869 303.0589 302.8028 302.6146 302.6017 302.5837 302.5445 302.5763 302.5751 302.388 302.0417 301.55 300.058 298.1365 295.7307 293.4353 291.2381 289.2255 287.1992 285.1806 283.2492 281.3906 279.5853 278.06 276.8481 276.0712 275.7313 275.5997 275.8023 275.9153 275.9613 275.8086 275.8262 275.9937 276.1975 276.256 276.048 275.7648 275.4948 275.3419 275.5971 276.0937 276.4913 276.6264 276.4677 276.0545 275.657 275.3622 275.3682 275.5433 276.0561 276.6509 277.3122 277.8606 278.4554 279.1096 279.8504 280.5758 281.2169 282.0087 282.9131 284.2209 285.5217 286.8108 287.9075 288.9877 290.0539 290.4888 290.5525 289.876 289.381 289.0017 288.6775 288.1657 287.4468 287.1317 286.9612 286.9938 286.9814 286.9866 287.2043 287.5871 288.0932 289.0087 289.9975 291.088 291.9878 292.8923 293.9185 294.8807 295.6877 295.2978 295.3353 295.8086 296.5548 297.2173 297.6804 298.0304 298.419 299.046 299.7118 300.4011 301.0201 301.5002 301.8195 302.6765 303.6612 304.7862 305.7393 306.6389 307.5828 309.058 310.9294 312.1149 313.2222 314.2308 315.0805 315.831 316.3944 317.0103 317.6461 318.2628 318.8921 319.5282 320.1046 320.7037 321.3755 321.3518 321.2101 321.5288 321.8035 322.1015 323.5541 324.3268 324.36 324.3118 324.3601 324.728 323.7845 322.737 323.9215 324.2482 323.9146 324.6049 324.6176 323.6061 324.0555 324.5969 324.431 324.2917 324.1638 324.041 323.9868 323.9978 323.9554 323.8447 323.6389 323.6809 323.8368 324.1494 324.5095 324.8538 324.1671 323.5186 322.961 323.8668 324.4722 324.0142 324.6059 325.492 325.8067 326.2621 326.8214 327.3864 327.8979 328.3067 328.3812 328.4318 328.6305 328.8514 329.0777 329.2963 329.524 329.7573 329.829 329.8376 329.7522 329.9044 330.0343 329.8066 329.9441
334.7092 333.3706 331.9468 330.6441 329.5165 328.7515 328.1867 328.0163 327.9378 327.8786 327.5529 327.1745 326.7363 326.1534 325.741 325.6638 325.6329 325.5431 325.1593 324.6911 324.1709 323.6872 323.3236 323.1056 322.6946 322.2652 321.8655 321.5443 321.1921 320.5085 319.9052 319.3691 319.3859 319.4897 319.7187 320.3252 320.9911 321.5891 322.0818 322.4915 322.5508 322.6389 322.7576 322.4878 322.0883 321.5016 320.9697 320.4846 320.164 319.8663 319.5884 319.3105 319.1956 319.2791 319.4276 319.7 320.2326 321.025 321.8094 321.9619 321.8285 321.4774 321.6121 321.7115 321.7553 321.8819 322.0054 322.0897 322.5352 323.1709 323.9142 324.6927 325.5046 326.464 327.374 328.1749 329.0618 329.8463 330.0708 330.283 330.4667 330.2627 329.8669 329.2422 328.5894 327.938 327.307 326.9697 326.7413 326.5011 326.4931 326.6587 326.7924 326.8602 326.835 326.0001 325.1609 324.797 324.6581 324.6117 324.3698 323.8323 323.0091 322.5074 322.1034 321.8407 321.7372 321.6833 321.6056 321.1111 320.3665 319.9244 319.7017 319.736 319.4587 319.0533 318.4608 317.689 316.7776 315.4549 314.3523 313.4273 312.661 312.0757 311.7368 311.6429 311.554 311.3283 310.9306 310.5013 310.5069 310.4344 310.2765 309.7948 309.2703 308.7091 307.9573 307.1658 306.4377 305.9118 305.5235 305.35 305.116 304.8038 304.3256 303.8206 303.3116 302.964 302.7138 302.6425 302.4406 302.1425 302.2588 302.3452 302.3706 302.3468 302.3049 302.2466 302.0977 301.7941 300.3879 298.6512 296.5979 294.4019 292.0456 289.399 287.2788 285.4288 284.0209 282.2871 280.3523 278.7057 277.1839 275.8094 274.9835 274.5249 274.7504 275.0705 275.3619 275.2461 275.3498 275.6305 276.1069 276.2886 276.0247 275.6893 275.3432 275.0286 275.3927 276.0792 276.346 276.3414 276.0709 275.8642 275.5534 275.0345 275.0438 275.3099 275.9664 276.3355 276.5218 276.8564 277.3516 278.0434 279.0006 279.9025 280.5763 281.2213 281.9077 282.9029 284.0343 285.2762 286.442 287.5141 288.4537 289.1845 289.6037 289.1779 288.4422 287.6292 287.6921 287.5367 287.159 286.8029 286.5617 286.5389 286.6373 286.7985 287.0688 287.3572 287.6783 288.5885 289.6191 290.7943 291.6782 292.6051 293.7463 294.8337 295.865 296.7047 296.9044 296.5694 296.2085 296.1109 296.4059 296.1931 295.9476 295.9268 296.3098 296.8874 297.3325 297.9579 298.7673 299.6426 300.6067 301.7314 302.6989 303.6026 304.4266 305.2826 306.1833 307.7662 309.412 311.1265 312.0901 312.8879 313.5562 314.3739 315.2513 316.1057 316.9375 317.7543 318.2897 318.8349 319.4056 319.9209 320.4153 320.8885 321.1456 321.3294 321.9872 322.5837 323.151 322.4757 322.624 324.6486 324.6297 324.0413 323.8008 323.6442 323.5367 323.2607 322.7228 321.8511 321.2865 320.9881 321.2452 321.2702 321.2268 321.3981 321.5167 321.5909 321.8092 321.9485 321.9492 321.4795 321.0319 321.0324 321.2683 321.6339 322.0181 322.3395 322.5969 322.9108 323.2232 323.5183 322.2673 320.9106 321.3815 322.0039 322.7137 322.7202 323.8303 326.3118 326.5961 326.6122 326.8139 327.0569 327.1189 325.7975 326.0532 327.5804 326.5364 325.8048 325.6708 325.9962 326.3996 326.6856 328.0911
332.5209 331.5125 330.6291 329.7433 328.8534 328.2563 327.7928 327.5471 327.0796 326.552 326.2551 325.9453 325.6248 325.3136 325.0132 324.7199 324.4531 324.1879 323.909 323.5536 323.1795 323.0997 323.128 323.2675 322.9397 322.3961 321.5072 320.8167 320.1676 319.4479 319.0886 318.9759 318.7305 318.5279 318.3846 318.3618 318.5735 319.3368 319.9438 320.435 320.554 320.6057 320.6021 320.4262 320.1559 319.7474 319.3666 319.063 318.975 318.6027 318.0752 317.5022 317.0837 316.8184 316.7934 317.0581 317.8496 318.8405 319.869 320.7655 321.1718 321.2408 320.9971 320.6591 320.1937 320.1464 320.1617 320.1443 320.5392 321.0748 321.3855 321.9061 322.5974 323.6221 324.4776 325.052 325.5608 326.1847 327.2471 327.8492 328.2043 328.3825 328.3648 328.1487 327.445 326.556 325.4059 325.0387 324.9093 324.7012 324.3922 324.0346 324.088 324.1217 324.1317 323.7303 323.1618 322.3657 322.0676 321.9608 321.6292 321.2228 320.748 320.4474 320.2592 320.2349 320.0863 319.7757 319.0259 318.3854 317.8455 317.7285 317.5709 317.3672 317.2657 317.1612 317.041 316.6237 316.0032 314.8871 313.612 312.2385 311.3669 310.8317 310.7323 310.6132 310.4316 310.1101 309.9304 309.7474 309.1398 308.7513 308.5566 307.8582 307.2115 306.6874 306.3497 306.0046 305.4884 305.1284 304.8424 304.4059 304.0859 303.8898 303.6133 303.2125 302.5787 302.11 301.7273 301.4985 301.3212 301.1858 300.8463 300.8113 301.1717 301.4105 301.586 301.6499 301.5495 301.3142 300.5742 299.3274 297.6462 295.5857 293.3768 290.9593 288.894 286.9768 285.2943 283.5835 281.8579 280.1952 278.6545 277.246 275.9006 274.8855 274.5255 274.411 274.4227 274.6169 274.7635 274.8865 275.4183 275.7054 275.6644 275.4953 275.4007 275.5446 275.4088 275.2016 275.3377 275.362 275.2822 275.0933 274.9284 274.8057 274.6419 274.6198 275.1309 275.7038 276.3085 276.9788 277.5158 277.9227 278.6201 279.3608 280.1176 280.6812 281.2326 282.023 282.855 283.7238 285.0898 286.3232 287.3803 287.8394 288.0889 288.0616 287.8421 287.5 286.892 286.4073 286.0343 286.02 286.0597 286.1628 286.1508 286.1806 286.4568 286.8123 287.2371 288.1204 289.1599 290.3692 291.1433 291.9457 292.9045 293.7841 294.6183 295.3647 295.8714 296.1885 295.726 295.3943 295.2437 295.4028 295.6557 296.0223 295.7638 295.2896 295.4646 295.8076 296.3214 297.3371 298.3266 299.2177 300.2027 301.1737 301.9972 302.9022 303.8624 304.9268 306.0638 307.2847 308.5903 309.841 310.9637 311.964 312.9482 314.0622 314.9413 315.6545 316.223 316.8465 317.5522 318.2042 318.804 319.2899 319.6115 319.8718 320.2514 320.4313 320.4162 322.0279 323.1707 323.4441 323.0983 322.6046 322.1764 321.7921 321.4191 320.7629 320.0946 319.4089 319.0818 318.8074 318.5655 318.401 318.2927 318.3264 318.3373 318.3327 318.3276 318.3158 318.2979 318.2151 318.1907 318.3657 318.672 319.013 319.1795 319.3768 319.5986 319.6155 319.6942 319.8898 320.1476 320.3356 320.1935 320.3731 320.6848 320.1389 319.8816 319.9256 320.6009 321.2006 321.4797 322.5181 323.6275 323.8798 323.5739 322.8997 323.235 323.6789 324.2813 324.7134 325.4398 327.0897 327.2513
330.7742 329.7916 328.6487 327.8645 327.4633 326.7972 326.3008 326.2205 326.4607 326.6307 325.9226 325.2092 324.4947 323.9842 323.5436 323.202 323.3316 323.4651 323.3908 323.2799 323.1316 322.8213 322.52 322.2291 321.8357 321.3281 320.6385 320.2668 319.9991 319.7915 319.2301 318.5036 318.3683 318.2703 318.2084 318.4141 318.6822 319.0233 319.1975 319.3315 319.5532 319.5495 319.3838 319.1427 318.9182 318.711 318.5627 318.3734 318.0469 317.6172 317.1454 316.6891 316.2937 315.9559 315.7651 315.7424 315.9916 316.3399 316.8249 317.6941 318.4259 319.0477 319.2164 319.308 319.3177 318.6817 318.2518 318.4233 318.7688 319.1339 319.2756 319.6402 320.1713 320.6495 321.2913 322.1617 323.0441 323.8069 324.2774 324.9113 325.5696 325.7703 325.6856 325.3444 324.6438 324.0183 323.539 323.1019 322.705 322.4312 321.9007 321.2309 320.8627 320.6438 320.6002 320.4696 320.3212 320.1524 319.7747 319.3207 318.8911 318.4341 317.9645 317.6038 317.374 317.3247 317.4257 317.4166 317.0233 316.5814 316.1273 315.7588 315.4154 315.1011 315.2911 315.4635 315.5545 315.1065 314.4333 313.4461 312.1434 310.6721 309.5083 308.7551 308.459 308.2736 308.0946 307.8878 307.534 307.2295 307.425 307.2048 306.6854 306.1888 305.668 305.111 304.7834 304.4821 304.1208 303.7327 303.3717 303.3233 303.2342 303.1107 302.8341 302.5025 302.0849 301.7261 301.4308 301.3145 301.1669 300.9842 300.6912 300.6377 300.8589 300.9937 301.0837 301.0952 301.19 301.2947 301.2939 300.8256 300.0041 297.8255 295.6819 293.5874 291.6281 289.6847 287.7205 285.9706 284.3168 282.5909 280.9125 279.2806 277.5794 276.1049 275.0278 274.6686 274.5443 274.5454 274.5128 274.4605 274.298 274.1012 273.8674 273.8746 274.0047 274.334 274.441 274.4868 274.6599 274.7264 274.7155 274.787 274.7828 274.6679 274.5183 274.4481 274.6231 275.1608 275.8969 276.8401 277.5135 277.9345 278.0255 278.3845 279.2527 279.8257 280.3459 281.0149 281.8688 282.8458 284.1321 285.2129 286.0515 286.2824 286.4353 286.5782 286.6305 286.6295 286.5238 286.4941 286.5253 286.2311 286.0169 285.9036 285.8253 285.7966 285.8942 286.4063 287.1205 287.8541 288.3659 288.6791 289.3061 289.8936 290.3777 290.6718 290.9242 291.1974 291.7398 292.4377 292.9184 293.1854 293.2144 293.6262 294.0351 294.3267 294.7526 295.2657 295.9736 296.5068 296.8922 297.8643 298.1148 297.3619 297.8745 298.6868 299.6385 300.6902 301.7841 302.8608 303.7807 304.5547 305.831 307.1383 308.431 309.4328 310.3916 311.5073 312.4788 313.3569 314.2335 315.0901 315.9174 316.477 316.9671 317.3788 317.6419 317.8928 318.3825 319.1584 320.1439 320.9199 321.1204 320.4892 320.9029 321.175 320.4486 320.187 320.0476 319.0433 318.0983 317.2099 316.6683 316.1725 315.7141 315.2846 314.951 314.9495 315.0687 315.2553 315.4358 315.5223 315.4995 315.4714 315.4734 315.5534 315.7859 316.0605 316.2144 316.4211 316.6685 317.0681 317.3701 317.5361 317.7654 318.1134 318.7673 319.4097 320.0203 320.3983 320.0707 319.0494 318.5582 318.48 319.039 319.3694 319.6685 320.1269 320.7296 321.4125 321.8411 322.3734 323.0291 323.4684 323.8875 324.3297 324.7754
328.6698 328.092 327.3064 326.7416 326.3922 326.2345 326.0216 325.6844 325.5192 325.3566 324.9622 324.3586 323.6365 323.4937 323.2414 322.851 322.4934 322.1902 321.9883 321.6694 321.3695 321.4537 321.3765 321.1828 320.6451 320.1894 319.8691 319.4919 319.0572 318.4965 318.1562 317.9478 317.9217 317.8859 317.8391 317.8434 317.9158 318.117 318.2348 318.3078 318.284 318.2367 318.1744 318.0256 317.8648 317.6887 317.5356 317.4074 317.336 317.0584 316.6966 316.3542 316.0468 315.7661 315.4035 315.151 315.0721 315.3397 315.5911 315.5535 315.7783 316.1559 316.6958 317.2124 317.705 317.264 316.9049 316.8246 317.1063 317.4388 317.5264 317.4242 317.2422 317.9625 319.0146 320.4559 320.3274 320.5058 321.8448 322.2133 322.2434 322.4533 322.4355 322.2367 321.6373 321.1614 320.8927 320.8575 320.7491 320.2708 319.9634 319.729 319.3926 319.0428 318.6768 318.3125 317.8933 317.3737 317.4685 317.562 316.9125 316.0906 315.1851 315.0943 314.9601 314.7825 314.9476 315.1355 315.2514 314.9296 314.4871 314.3457 314.0688 313.6817 313.2579 313.0328 313.0978 312.8546 312.4781 311.9005 311.159 310.3183 309.3074 308.3949 307.573 306.922 306.3849 306.0287 305.7712 305.5423 305.3063 305.1018 304.9125 304.5753 304.3177 304.1673 303.8763 303.5773 303.3152 303.1382 302.9485 302.4853 302.1126 301.8155 301.4415 301.1073 300.8427 300.8036 300.7629 300.5741 300.4291 300.3431 300.6345 300.7695 300.7454 300.6082 300.5122 300.5069 300.4996 300.5208 300.6622 300.5886 300.3488 299.2031 297.736 295.8822 293.991 292.0697 290.071 288.3473 286.7439 285.2015 283.4778 281.6169 279.9419 278.4089 277.0822 276.2675 275.6505 275.2891 274.8887 274.4775 274.1785 273.9635 273.8276 273.7814 273.6485 273.334 273.0297 272.8543 273.2085 273.6123 274.037 274.2762 274.4679 274.6032 274.4198 274.3183 274.5309 274.9109 275.383 276.0045 276.7014 277.452 277.3195 277.3158 277.5479 278.585 279.694 280.4703 281.1232 281.7708 282.9857 284.2762 285.6391 286.1187 286.3077 286.1045 286.1512 286.27 286.3721 286.3438 286.2195 285.6761 285.4172 285.5209 285.8693 286.1342 286.1242 286.696 287.5399 288.6433 289.4078 289.8909 289.4199 289.1168 289.1121 289.2181 289.3924 289.7207 290.0223 290.3004 290.4079 290.7017 291.1855 291.9142 292.6379 293.3178 293.9131 294.4793 295.0492 295.5676 296.0518 296.6045 297.2592 298.0469 297.8867 297.6918 297.8538 298.4826 299.3255 300.3596 301.3517 302.3088 303.2251 304.2364 305.3972 306.4097 307.4754 308.8325 309.8723 310.7508 311.6549 312.5757 313.512 314.2546 314.8282 315.1152 315.4051 315.6672 315.823 316.1481 316.6196 318.4 318.7546 317.3046 317.2236 317.7513 319.1803 318.8384 317.7931 316.9867 316.1746 315.3501 314.4333 313.6477 313.0782 312.6643 312.3542 312.2816 312.3991 312.6149 312.7885 312.9773 313.1815 313.3696 313.6278 314.024 314.266 314.4559 314.6335 314.7021 314.7102 315.1062 315.5551 316.06 316.1229 316.325 317.0486 317.5578 317.9545 318.1547 318.5435 319.083 319.5261 319.1061 317.431 317.572 318.1327 318.698 319.1536 319.5685 320.1453 320.7744 321.458 322.0392 322.6021 323.151 324.603
327.8456 327.473 327.1373 326.732 326.2728 325.5997 325.0165 324.5926 324.239 323.9079 323.6046 323.292 322.9659 322.5257 322.0493 321.5337 321.429 321.1277 320.3562 320.0928 320.1045 320.6201 320.8973 321.0023 320.0901 319.4862 319.2773 319.1231 318.856 318.2804 317.8261 317.4399 317.1841 317.0583 317.0399 317.2087 317.3739 317.5197 317.3677 317.16 316.9985 316.8534 316.7202 316.6563 316.4911 316.2252 315.9764 315.6618 315.2093 315.1817 315.338 315.7093 315.5862 315.1446 314.9818 314.8342 314.7022 314.6165 314.6007 314.7392 314.7939 314.8362 315.0508 315.1209 315.0772 315.1285 314.9546 314.4447 314.6537 314.9983 315.2289 315.5256 315.8502 315.9737 315.982 315.9021 316.6443 317.4427 318.2314 318.4883 318.6029 318.8855 319.4211 320.1007 319.9239 319.6829 319.363 319.1483 318.8924 318.4698 317.6976 316.7933 316.0165 315.5471 315.3347 315.5708 315.6568 315.4734 315.2632 315.0323 314.7357 314.0379 313.197 313.4778 313.6146 313.6016 313.1192 312.7517 312.7291 312.5521 312.3736 312.4461 312.6099 312.8164 311.9585 311.1526 310.4294 310.3569 310.3257 310.1086 309.8851 309.5809 308.6796 307.5682 306.2785 305.6989 305.2202 304.8532 304.5479 304.2985 304.1995 304.0034 303.7522 303.4637 303.3364 303.3738 302.9566 302.5597 302.3111 302.1185 301.9059 301.4964 301.2516 301.1212 301.0752 300.9375 300.6814 300.4667 300.3494 300.4515 300.2503 299.965 300.0184 300.1723 300.4093 300.3154 300.208 300.1066 300.0021 299.9372 300.013 300.14 300.2698 300.1144 299.7517 299.1637 297.0882 294.898 292.7894 290.8243 288.9128 287.0124 285.1913 283.412 281.7286 280.3027 279.2133 277.8899 276.6885 275.8999 275.2799 274.7554 274.3939 274.1983 274.1483 274.0124 273.8134 273.517 273.0002 272.4814 272.1494 272.1547 272.368 272.9071 273.4667 274.0468 274.0578 274.0086 273.9672 274.0913 274.2914 274.589 275.1753 275.9656 276.8105 277.1982 276.9802 277.162 277.6488 278.7358 279.7179 280.6808 281.8651 283.1513 284.5221 285.1172 285.445 285.385 285.3582 285.3609 285.4554 285.5725 285.6894 285.6317 285.7231 285.9763 286.3083 286.4872 286.321 286.6069 287.1896 288.4702 289.5677 290.5305 290.1291 289.5552 288.7578 288.4776 288.4336 288.7959 289.0811 289.3044 289.3209 289.308 289.2607 290.2227 291.2372 292.236 292.8369 293.3844 294.0833 294.7781 295.459 295.9545 296.4266 296.875 297.3802 298.0218 298.9411 298.3632 297.6092 298.6828 299.5247 300.2081 301.0167 301.9109 302.9194 303.8553 304.8307 305.9455 306.9058 307.78 308.5526 309.2857 309.9862 311.0665 311.814 311.9796 313.5976 314.8506 313.5298 313.3888 313.9721 315.6864 316.7382 317.0643 315.8535 315.2345 316.2475 316.1345 315.5467 314.5664 313.8275 313.2642 312.8284 312.2633 311.529 311.0904 310.8626 311.0472 311.0728 311.0468 311.1323 311.3799 311.7687 312.0055 312.1579 312.184 312.3217 312.5231 312.8588 313.2034 313.5427 313.7315 313.9091 314.0751 314.3134 314.6245 315.0701 315.4439 315.8361 316.4281 316.8649 317.1847 317.4121 316.9949 315.6874 315.9393 316.461 316.936 317.5271 318.1458 318.5387 318.9375 319.3459 319.7145 320.1825 320.8184 322.5466
